# .PCD v0.7 - Point Cloud Data file format
VERSION 0.7
FIELDS x y z intensity
SIZE 4 4 4 4
TYPE F F F F
COUNT 1 1 1 1
WIDTH 1395
HEIGHT 1
VIEWPOINT 0 0 0 1 0 0 0
POINTS 1395
DATA ascii
21.123722 -26.366892 3.2192042 143
21.247478 -26.190399 3.2135131 144
21.369865 -26.01338 3.2078216 126
21.529078 -25.881767 3.2078216 175
21.641308 -25.694361 3.2009921 169
21.775303 -25.533819 3.1975775 157
21.900337 -25.363562 3.1930244 130
22.024103 -25.192732 3.1884713 141
22.194101 -25.075008 3.1907475 129
22.299709 -24.884977 3.1839182 141
22.419874 -24.712292 3.1793652 118
22.579165 -24.583059 3.1805034 112
22.721443 -24.435305 3.1793652 123
22.805441 -24.225842 3.1702588 108
22.986626 -24.120047 3.1748118 121
23.109308 -23.952759 3.1713972 95
23.247496 -23.801964 3.1702588 154
23.376308 -23.641884 3.1679826 133
23.495579 -23.472677 3.1645677 127
23.613651 -23.302895 3.1611526 113
23.747639 -23.149227 3.1600146 131
23.889233 -23.00308 3.1600146 145
23.969337 -22.798435 3.1520469 116
24.152304 -22.69183 3.157738 150
24.238546 -22.49445 3.1509085 135
24.420141 -22.385662 3.1565995 137
24.574749 -22.251438 3.1588764 126
24.657394 -22.052452 3.1520469 115
24.819099 -21.924467 3.1554615 119
24.935154 -21.756058 3.1531849 113
25.086279 -21.618248 3.1554615 107
25.236647 -21.479399 3.157738 123
25.294811 -21.262651 3.1486318 140
25.452375 -21.129938 3.1520469 114
25.553831 -20.950644 3.1486318 132
25.700472 -20.808489 3.1509085 181
25.809004 -20.635481 3.1486318 156
25.963264 -20.498941 3.1520469 169
26.079134 -20.331902 3.1509085 172
26.222328 -20.186073 3.1531849 150
26.345694 -20.024797 3.1531849 166
26.496731 -19.884275 3.1565995 166
26.627838 -19.728434 3.157738 151
26.748388 -19.564676 3.157738 157
26.877617 -19.407177 3.1588764 166
27.015646 -19.25576 3.1611526 161
27.133289 -19.089632 3.1611526 183
27.259722 -18.9296 3.162291 168
27.385214 -18.768736 3.1634295 146
27.509756 -18.607042 3.1645677 151
27.663151 -18.464422 3.1691206 144
27.775925 -18.294336 3.1691206 117
27.947756 -18.162621 3.1759503 132
28.108952 -18.023033 3.1816413 161
28.168535 -17.818291 3.1759503 142
28.338142 -17.68306 3.1827798 154
28.476629 -17.527632 3.1861944 143
28.614277 -17.371172 3.1896095 144
28.710075 -17.189135 3.1884713 120
28.866438 -17.043015 3.1941624 134
28.991117 -16.877594 3.196439 145
29.104492 -16.705338 3.1975775 150
29.22724 -16.538206 3.1998539 149
29.39076 -16.393475 3.2066832 159
29.532669 -16.235847 3.2112362 154
29.631735 -16.054333 3.2112362 151
29.792915 -15.905972 3.2180662 152
29.911095 -15.733989 3.2203426 158
30.007072 -15.550161 3.2203426 142
30.176401 -15.403767 3.2283103 141
30.30237 -15.234417 3.2317255 126
30.416687 -15.058798 3.2340019 114
30.529987 -14.882349 3.2362781 129
30.67458 -14.720583 3.2419696 138
30.807531 -14.5525 3.2465227 172
30.972073 -14.398445 3.2544906 161
31.0707 -14.213103 3.2556288 206
31.23358 -14.056507 3.2635968 179
31.40663 -13.903282 3.2727029 192
31.502296 -13.71508 3.2738409 194
31.673714 -13.559138 3.2829471 207
31.8444 -13.401607 3.2920532 162
31.959148 -13.219659 3.2954681 175
32.106064 -13.050303 3.3022978 117
32.473976 -12.968246 3.3318927 96
32.59742 -12.786193 3.3364456 107
32.809029 -12.637465 3.3501048 120
32.930649 -12.452816 3.3546579 103
32.860847 -12.196486 3.3398607 115
32.979965 -12.010978 3.3444138 120
33.120537 -11.832504 3.351243 144
33.282711 -11.660657 3.3603494 156
33.387524 -11.46786 3.363764 136
33.525192 -11.285649 3.3705935 129
33.695911 -11.113405 3.3808382 148
33.797569 -10.917458 3.3842528 124
33.932259 -10.731486 3.3910823 98
34.134411 -10.565467 3.4047415 120
34.312927 -10.390445 3.4161241 81
38.59119 -11.427935 3.8350058 15
38.786808 -11.227466 3.8475268 28
38.958424 -11.018523 3.8577712 32
34.949089 -9.6533718 3.4548252 19
35.019196 -9.4418564 3.4559636 112
35.145786 -9.245038 3.4627931 123
35.363853 -9.0707664 3.478729 113
35.546329 -8.8854742 3.49125 122
35.73946 -8.701107 3.5049088 113
35.908417 -8.5091963 3.5162919 118
36.018154 -8.3021212 3.5219829 104
36.219959 -8.1149139 3.5367806 107
36.362446 -7.9128399 3.5458863 115
36.573952 -7.724134 3.5618224 126
36.7845 -7.5331283 3.5777581 114
36.970638 -7.3351789 3.5914173 63
37.319973 -7.1667681 3.6210122 55
37.915264 -7.0401421 3.6745105 38
42.436474 -7.3421135 4.1036363 34
42.893143 -7.1503401 4.143476 19
42.948002 -6.8889098 4.1446137 38
42.954044 -6.6197977 4.1411991 18
43.422367 -6.1474462 4.178762 14
44.02615 -5.4083152 4.2265692 53
44.319546 -5.1685162 4.2516112 66
44.564152 -4.9200759 4.2721 62
44.747959 -4.6626368 4.2868972 40
45.144287 -4.4240994 4.3221836 19
45.468933 -3.8932161 4.3483639 13
45.801582 -3.6387486 4.3779588 20
45.870705 -3.3611388 4.3825116 10
46.307629 -3.1076136 4.4223509 11
46.254284 -2.8190565 4.4155211 13
1.2190311 -0.059291333 0.11629278 17
1.0045396 -0.042682286 0.095803998 11
1.1005114 -0.033236757 0.10491013 15
1.1245794 -0.027058205 0.10718665 19
1.3040725 -0.0073658996 0.12426064 28
1.3996602 0.00068247633 0.13336676 18
1.0293152 0.0068177944 0.098080538 30
1.0172104 0.019222854 0.096942276 23
1.1842633 0.029649835 0.11287799 16
43.395103 1.6195248 4.1377845 38
43.121788 1.8743491 4.1127424 45
42.679951 2.1175931 4.0717649 52
42.487244 2.3694549 4.0546913 59
42.138062 2.6094334 4.02282 60
41.930561 2.8549547 4.0046077 21
41.828865 3.1059899 3.9966397 27
40.8606 3.7915123 3.9101312 23
40.228859 4.2314181 3.8543565 45
33.159233 4.3129587 3.1861944 21
33.013783 4.5002046 3.1748118 22
32.701717 4.6622233 3.1474938 13
32.601597 4.8522377 3.1406639 32
32.34692 5.017396 3.1190369 14
37.690567 6.320848 3.6415009 11
37.210449 6.7108059 3.6027999 24
37.133343 6.9324217 3.599385 30
36.925896 7.128437 3.5834494 36
36.506573 7.2801156 3.5470247 69
36.519722 7.5160193 3.5527163 22
36.42617 7.7300391 3.5481632 19
35.852894 7.8385835 3.4969411 22
35.745853 8.045311 3.49125 12
35.4165 8.1998234 3.4639313 34
35.388767 8.4225121 3.4662082 34
34.668659 8.702014 3.40588 24
34.834412 8.97118 3.4275069 31
33.487446 9.7288837 3.3227866 20
33.553082 9.9716091 3.3353076 22
32.869179 10.208982 3.2795324 35
32.840076 10.42131 3.2829471 44
37.813229 12.512258 3.7951667 10
37.781017 12.759329 3.7997198 11
37.656837 12.975342 3.7951667 15
37.283489 13.103173 3.7655718 16
31.624561 11.332847 3.2009921 53
31.248009 11.632555 3.1770887 15
31.097855 11.794415 3.1691206 60
31.114046 12.019444 3.1782267 38
31.017479 12.201385 3.1759503 73
31.208179 12.498061 3.2032685 29
31.783577 12.955352 3.2704263 15
31.968311 13.259974 3.2977448 23
29.960287 12.64309 3.0985482 25
29.838238 12.807837 3.0939951 49
29.627712 12.933331 3.0803361 17
29.525957 13.105186 3.0780594 44
33.506496 15.118731 3.5026324 25
29.178322 13.38187 3.0587089 50
34.227962 15.952671 3.5982468 26
37.983772 17.987656 4.0046077 10
35.667259 17.429667 3.7826457 12
35.848557 17.791576 3.813379 16
28.034454 14.344874 3.0006573 70
27.861101 14.472568 2.9915514 17
27.845743 14.682249 2.9995191 12
27.607676 14.773922 2.9835835 16
27.401028 14.880331 2.9710627 119
36.631413 20.18499 3.9852571 11
36.295082 20.879662 3.9898098 13
36.042473 21.029728 3.976151 10
26.158224 15.915081 2.9175639 56
25.267321 16.235815 2.861789 108
24.846899 16.181929 2.8253646 75
24.587622 16.228794 2.8071523 138
24.517368 16.399279 2.8105669 126
24.327286 16.489084 2.8003225 24
23.723448 16.293133 2.7422712 40
23.082365 16.273279 2.6910491 38
22.282167 15.914701 2.6090939 93
21.903429 15.848047 2.5760844 164
21.555264 15.798538 2.5464895 171
21.256496 15.780964 2.5225859 207
20.987408 15.781862 2.5020971 142
20.738121 15.794533 2.4838848 125
20.470558 15.790152 2.4633961 129
20.156767 15.746316 2.437216 142
19.863029 15.714053 2.4133124 140
19.635714 15.731068 2.3973768 159
19.334728 15.685679 2.372335 172
19.071966 15.667527 2.351846 159
18.755058 15.60091 2.3245277 158
18.558475 15.631043 2.3120067 155
18.253159 15.566338 2.2858267 163
17.976467 15.521901 2.2630615 141
17.772964 15.53756 2.249402 193
17.507334 15.495889 2.2277753 190
17.278475 15.483437 2.2107012 177
17.03274 15.452709 2.1913507 158
16.814432 15.443798 2.175415 144
16.535641 15.375851 2.1515114 183
16.345304 15.386952 2.1389904 164
16.112221 15.355094 2.1207783 172
15.923133 15.36243 2.1082573 164
15.640559 15.276212 2.0832155 140
15.478575 15.304699 2.0741093 187
15.266175 15.28107 2.0581737 190
15.046262 15.246912 2.0410998 208
14.885715 15.270514 2.0319934 205
14.675735 15.241092 2.0160577 198
14.450213 15.19236 1.9978454 224
14.266746 15.184972 1.9853245 207
14.075791 15.167151 1.9716655 213
13.885595 15.147562 1.9580061 213
13.696174 15.126215 1.944347 224
13.547359 15.147639 1.9363792 228
13.31971 15.078279 1.9170287 212
13.156258 15.078711 1.9067843 236
12.977707 15.059609 1.8942634 241
12.784404 15.020695 1.8794659 248
12.630505 15.0257 1.8703598 233
12.461767 15.011003 1.8589772 245
12.308835 15.013281 1.849871 278
12.133796 14.986397 1.8373501 247
11.981933 14.985924 1.828244 240
11.81573 14.965404 1.8168614 250
11.642888 14.93399 1.8043405 270
11.470879 14.901022 1.7918196 250
11.321402 14.895041 1.7827133 210
11.165262 14.878236 1.7724689 257
11.023981 14.879275 1.7645011 269
10.854898 14.840575 1.7519802 249
10.728669 14.858476 1.746289 273
10.574894 14.836474 1.7360444 284
10.449291 14.852231 1.7303531 269
10.276199 14.798323 1.716694 266
10.131177 14.782268 1.7075878 255
9.9934349 14.774888 1.69962 297
9.8296385 14.726634 1.6870991 261
9.7193794 14.75674 1.6836842 328
9.5830841 14.745984 1.6757164 299
9.4537373 14.74417 1.6688869 320
9.318388 14.731229 1.660919 319
9.1772318 14.707052 1.6518129 329
9.0242004 14.661352 1.6404302 265
8.9092731 14.675602 1.6358771 233
8.7822399 14.668497 1.6290476 268
8.6374083 14.629525 1.618803 296
8.5354614 14.661602 1.6165267 274
8.4037113 14.641173 1.6085587 322
8.2725353 14.619684 1.6005908 327
8.1710367 14.649302 1.5983143 345
8.0119362 14.573545 1.5846553 298
7.899601 14.580418 1.5801021 352
7.770606 14.554848 1.5721343 319
7.6700301 14.581108 1.5698577 353
7.5474391 14.564258 1.5630281 324
7.4144826 14.525174 1.5539219 358
7.3091211 14.538377 1.5505072 358
7.1826763 14.508012 1.5425394 385
7.046412 14.455169 1.532295 317
6.9575844 14.498133 1.532295 348
6.8378806 14.475741 1.5254654 333
6.7237511 14.463264 1.5197741 329
6.6150022 14.460793 1.515221 326
6.5016346 14.446643 1.5095296 339
6.3790202 14.409801 1.5015618 295
6.271409 14.404858 1.4970087 247
6.173502 14.421103 1.4947321 198
6.0431957 14.359617 1.4844878 206
5.996068 14.495776 1.4947321 327
5.8890176 14.488029 1.4901792 280
5.7911491 14.501702 1.4879026 318
5.6671624 14.447995 1.4787965 276
5.5741105 14.471349 1.4776583 275
5.4683094 14.460584 1.4731052 316
5.3628511 14.449066 1.4685521 312
5.2659168 14.459251 1.4662756 348
5.1610212 14.446292 1.4617225 338
5.0683336 14.466413 1.4605843 380
4.9561906 14.429452 1.4537547 373
4.8561258 14.425626 1.4503399 339
4.7600369 14.432461 1.4480634 297
4.6603756 14.427294 1.4446485 316
4.5537529 14.398669 1.4389572 285
4.4476576 14.36928 1.4332659 227
4.3594055 14.3963 1.4332659 203
4.2404623 14.31969 1.4230216 123
4.1558399 14.356915 1.4241598 63
4.0514135 14.324668 1.4184684 207
3.9284573 14.222596 1.4059474 344
3.8317857 14.21183 1.4025327 354
3.7384336 14.211969 1.4002562 316
3.6511602 14.23464 1.4002562 346
3.5434706 14.17565 1.3922883 330
3.450772 14.173911 1.3900118 324
3.3664923 14.206442 1.39115 344
3.2497451 14.098783 1.3786291 263
3.1475053 14.048517 1.3717996 227
3.0409253 13.974184 1.3626934 215
2.8736656 13.606873 1.3251306 179
2.7110314 13.23805 1.2875679 254
2.6134796 13.172413 1.2796 303
2.5190885 13.117811 1.2727704 426
2.4276476 13.074296 1.2670791 435
2.3452709 13.077188 1.2659409 444
2.2609134 13.067789 1.2636644 446
2.1787241 13.069633 1.262526 506
2.0965974 13.07096 1.2613878 491
2.0145364 13.071772 1.2602495 536
1.9290506 13.048435 1.2568347 451
1.847276 13.048198 1.2556965 487
1.7639751 13.03561 1.25342 490
1.6793691 13.010646 1.2500051 441
1.6009623 13.032562 1.2511435 509
1.5140471 12.982813 1.2454522 490
1.4356685 13.003732 1.2465903 477
1.3521379 12.976652 1.2431756 436
1.2736543 12.996593 1.2443138 475
1.1884241 12.944684 1.2386225 432
1.1110129 12.975537 1.2408991 516
1.0294834 12.958293 1.2386225 493
0.94995344 12.964366 1.2386225 528
0.87278736 13.005708 1.2420373 510
0.78933579 12.9512 1.2363459 496
0.70985383 12.955799 1.2363459 536
0.62802386 12.912184 1.2317929 440
0.54827726 12.903859 1.2306547 395
0.46995807 12.930856 1.2329311 461
0.38916454 12.885735 1.2283782 413
0.31009182 12.88788 1.2283782 380
0.23100746 12.88954 1.2283782 454
0.15135129 12.842935 1.223825 399
0.072680622 12.867513 1.2261015 502
-0.0062743165 12.867717 1.2261015 491
-0.085070774 12.843544 1.223825 470
-0.16341843 12.806946 1.2204102 409
-0.24290012 12.853477 1.2249633 487
-0.32116503 12.82786 1.2226868 453
-0.39986923 12.825648 1.2226868 437
-0.51776385 13.873461 1.3228542 247
-0.60132378 13.834219 1.3194394 325
-0.68560565 13.818337 1.3183011 355
-0.76905012 13.790015 1.3160245 350
-0.85512626 13.808884 1.3183011 373
-0.9398399 13.803376 1.3183011 315
-1.0245181 13.79735 1.3183011 326
-1.1091578 13.790804 1.3183011 346
-1.1937557 13.783739 1.3183011 349
-1.2761012 13.752365 1.3160245 355
-1.3592833 13.732388 1.3148862 372
-1.4472671 13.75943 1.3183011 335
-1.529021 13.726546 1.3160245 317
-1.6160074 13.740634 1.3183011 307
-1.6988199 13.718604 1.3171628 289
-1.7891269 13.755307 1.321716 337
-1.8734941 13.74407 1.321716 357
-1.9476745 13.661358 1.3148862 270
-2.0402553 13.708229 1.3205776 257
-2.120667 13.671843 1.3183011 254
-2.2083228 13.682159 1.3205776 281
-2.2922335 13.668352 1.3205776 297
-2.3740096 13.642261 1.3194394 286
-2.4619126 13.65095 1.321716 262
-2.5434346 13.623844 1.3205776 264
-2.6315098 13.63144 1.3228542 251
-2.7174375 13.626752 1.3239925 253
-2.7985904 13.598121 1.3228542 259
-2.8918934 13.627436 1.3274071 266
-2.9754553 13.609434 1.3274071 221
-3.0562823 13.579267 1.3262689 178
-3.1503236 13.606811 1.330822 164
-2.8990848 12.181048 1.1930919 112
-2.9141922 11.919344 1.1691883 250
-2.9378326 11.704269 1.1498379 316
-2.9768209 11.55877 1.1373169 312
-3.0385375 11.505637 1.1339021 298
-3.0841093 11.394528 1.1247959 254
-3.1348162 11.30632 1.1179663 281
-3.2106562 11.309856 1.1202428 271
-3.2666605 11.244057 1.1156898 253
-3.3389945 11.235252 1.1168281 299
-3.3974502 11.180264 1.1134133 243
-3.4695303 11.170616 1.1145515 272
-3.5380065 11.149117 1.1145515 282
-3.6137156 11.149925 1.1168281 254
-3.6783094 11.1162 1.1156898 233
-3.742626 11.082105 1.1145515 270
-3.8261204 11.104108 1.1191046 271
-3.9219081 11.159314 1.1270726 265
-3.9862766 11.123794 1.1259342 242
-4.0954442 11.211332 1.1373169 207
-4.1849966 11.241968 1.1430081 230
-4.2962599 11.327774 1.1543909 256
-4.4130368 11.423776 1.1669118 201
-5.3226638 13.530891 1.3854587 91
-5.4366751 13.575604 1.3934265 77
-5.4973259 13.48668 1.3877352 72
-5.5845523 13.463729 1.3888736 63
-5.6856365 13.473233 1.3934265 68
-5.7964716 13.503958 1.4002562 84
-5.8983378 13.51193 1.4048092 80
-5.985981 13.486403 1.4059474 72
-6.0980983 13.514752 1.4127772 77
-6.1560087 13.422788 1.4070858 65
-6.2634859 13.438901 1.4127772 70
-6.3253765 13.35703 1.408224 86
-6.4590039 13.425615 1.4196067 92
-6.5779748 13.460862 1.4275746 83
-6.6498241 13.398846 1.4252981 84
-6.8179317 13.528475 1.4435103 76
-6.8736048 13.433213 1.437819 90
-6.9779267 13.433188 1.442372 68
-7.049077 13.368986 1.4400955 77
-7.1253386 13.31495 1.4389572 86
-7.2582111 13.365458 1.4492016 87
-7.3285532 13.299747 1.446925 110
-7.4041915 13.244102 1.4457868 111
-7.5206757 13.260768 1.4526165 104
-7.6257277 13.255791 1.4571694 99
-7.7069201 13.208751 1.4571694 103
-7.8121562 13.202337 1.4617225 115
-7.9114566 13.184884 1.4651374 109
-7.9797902 13.115682 1.4628608 117
-8.1102896 13.147808 1.4719669 129
-8.1844759 13.087668 1.4708287 137
-8.2902107 13.077561 1.4753817 176
-8.3961277 13.066648 1.4799348 191
-8.5087414 13.064934 1.4856261 184
-8.6084881 13.04239 1.4890409 206
-8.7282019 13.0489 1.4958705 211
-8.8215094 13.014875 1.498147 210
-8.9417791 13.019587 1.5049766 212
-9.0556135 13.013502 1.5106679 217
-9.1765928 13.016274 1.5174975 214
-9.2840586 12.998607 1.5220506 221
-9.4056568 12.999464 1.5288801 221
-9.5134907 12.980048 1.5334332 186
-9.6071968 12.940614 1.5357097 250
-9.7510347 12.96735 1.5459541 236
-9.8521318 12.935786 1.549369 236
-9.9823914 12.941303 1.5573368 220
-10.113089 12.945705 1.5653046 233
-10.199742 12.892777 1.5664428 213
-10.360819 12.932503 1.5789638 247
-10.462555 12.896518 1.5823786 212
-10.579404 12.878231 1.5880699 247
-10.696421 12.858994 1.5937612 214
-10.805903 12.829667 1.5983143 227
-10.938682 12.826748 1.6062821 258
-11.103058 12.858847 1.618803 201
-9.845129 11.261557 1.4252981 159
-9.7556925 11.022031 1.4025327 203
-9.8151674 10.953068 1.4013945 237
-9.8340292 10.839552 1.3945649 237
-9.8599501 10.735018 1.3888736 232
-9.9093637 10.656819 1.386597 222
-9.95819 10.57842 1.3843205 247
-10.014669 10.508471 1.3831822 219
-10.128725 10.498406 1.3900118 229
-10.243032 10.487336 1.3968414 242
-10.433177 10.551707 1.4139154 205
-12.711924 12.699533 1.7121409 160
-12.840624 12.67164 1.7189705 199
-12.995121 12.66766 1.7292149 202
-13.141443 12.653972 1.7383209 181
-13.270775 12.622497 1.7451506 206
-13.400212 12.58991 1.7519802 198
-13.573528 12.596838 1.7645011 172
-13.738623 12.594037 1.7758837 205
-13.895338 12.581665 1.7861283 176
-14.025701 12.543948 1.7929577 169
-14.218794 12.560467 1.8077552 193
-14.358604 12.527961 1.8157229 171
-14.516648 12.509807 1.8259673 146
-14.684105 12.497926 1.8373501 150
-14.888535 12.515203 1.8532858 140
-15.029387 12.477028 1.8612537 160
-15.234993 12.490608 1.8771894 170
-15.367053 12.441996 1.884019 154
-15.573729 12.45191 1.8999547 163
-15.696718 12.393129 1.905646 154
-15.885519 12.384723 1.9193052 167
-16.074802 12.37446 1.9329643 161
-16.274065 12.369568 1.9477618 159
-16.435648 12.334011 1.9580061 162
-16.645399 12.332494 1.973942 165
-16.83646 12.314755 1.987601 148
-17.008556 12.28115 1.9989839 163
-17.229507 12.28056 2.0160577 169
-17.421776 12.257095 2.029717 140
-17.634027 12.245359 2.0456529 153
-17.836929 12.224721 2.0604501 156
-18.060028 12.215437 2.0775239 139
-18.253872 12.183977 2.0911834 148
-18.497887 12.183449 2.110534 151
-18.682476 12.141323 2.1230547 128
-18.867241 12.097388 2.1355758 115
-19.143026 12.109115 2.1583409 136
-19.348717 12.07364 2.1731384 144
-19.615726 12.073664 2.1947653 111
-19.832401 12.039865 2.2107012 100
-20.059643 12.009996 2.2277753 105
-20.276972 11.971714 2.2437108 109
-20.577173 11.979296 2.2687528 116
-20.847139 11.965799 2.2903798 130
-21.076118 11.925903 2.3074536 136
-21.336689 11.901103 2.3279426 130
-21.65008 11.902325 2.3541226 118
-21.880255 11.854618 2.3711965 121
-22.100113 11.798905 2.3871322 122
-22.425831 11.796552 2.4144506 110
-22.720526 11.774152 2.4383543 107
-23.026419 11.754006 2.4633961 102
-23.322241 11.72518 2.4872997 110
-23.639977 11.703761 2.5134797 101
-23.89389 11.647473 2.5328302 109
-21.972469 10.544482 2.3222511 45
-24.542692 11.593188 2.5863287 101
-24.830015 11.543097 2.6090939 87
-25.269726 11.559483 2.6477952 61
-25.666985 11.551291 2.6819432 82
-26.982647 11.944846 2.8117054 86
-27.351158 11.907809 2.8424385 79
-27.676292 11.847889 2.8686185 73
-27.95767 11.765889 2.8902457 25
-80.512825 20.125696 7.9077196 36
-80.599976 19.622822 7.9043045 13
-80.474762 19.070055 7.8804011 18
-80.492897 18.034061 7.8599129 33
-80.368576 17.489023 7.8371468 15
-80.357498 16.970879 7.8257647 22
-24.964462 5.112493 2.4281099 88
-24.667273 4.8941231 2.3962383 217
-24.614717 4.7269053 2.3882706 314
-24.584532 4.5648789 2.3825793 307
-24.576803 4.407619 2.3791645 320
-24.568073 4.2506261 2.3757496 304
-24.499424 4.0840845 2.3666434 314
-24.524023 3.933682 2.3666434 307
-24.524084 3.7794924 2.364367 329
-24.499542 3.6219559 2.3598139 318
-24.485823 3.466538 2.3563991 329
-24.494795 3.3146286 2.3552608 320
-24.419889 3.152035 2.3461547 292
-24.43877 3.0021379 2.3461547 321
-24.444868 2.8507445 2.3450165 349
-24.426277 2.6967669 2.3416016 359
-24.382956 2.5406492 2.3359103 343
-24.374308 2.3886602 2.3336339 312
-24.400402 2.2401493 2.3347721 313
-24.354176 2.0852935 2.3290808 322
-24.342695 1.9339278 2.3268042 331
-24.330276 1.7827814 2.3245277 317
-24.281162 1.6294607 2.3188365 323
-24.254932 1.4782635 2.3154216 333
-24.29933 1.3313708 2.3188365 348
-24.259314 1.1799265 2.3142834 310
-24.242226 1.0300378 2.3120067 340
-24.248091 0.88127083 2.3120067 344
-24.22916 0.73174953 2.3097303 335
-24.221252 0.58278108 2.3085921 310
-24.200485 0.43372318 2.3063154 321
-24.214634 0.28536439 2.3074536 332
-24.180094 0.1365784 2.304039 343
-24.159101 -0.032915533 2.1089759 286
-24.122583 -0.18088347 2.1058452 288
-24.121019 -0.32889345 2.1058452 272
-24.082689 -0.47618204 2.1027143 279
-24.091267 -0.62425137 2.1037581 261
-24.063086 -0.77129489 2.101671 232
-24.057899 -0.91892868 2.101671 201
-24.051807 -1.0665278 2.101671 300
-24.044811 -1.2140869 2.101671 331
-24.013039 -1.3602481 2.0995836 317
-24.051964 -1.510561 2.1037581 300
-23.970686 -1.6531775 2.0974965 296
-23.995852 -1.8029147 2.1006272 333
-24.008169 -1.9520541 2.1027143 304
-23.960012 -2.0962031 2.0995836 290
-23.934795 -2.2420645 2.0985401 280
-23.94438 -2.3912594 2.1006272 296
-23.941145 -2.5393953 2.101671 326
-23.925114 -2.6862476 2.101671 324
-23.931923 -2.8358123 2.1037581 321
-23.890347 -2.9796433 2.101671 289
-23.895321 -3.1292803 2.1037581 279
-23.863827 -3.2742152 2.1027143 281
-23.878788 -3.4256723 2.1058452 326
-23.892786 -3.5774357 2.1089759 306
-23.858574 -3.7221289 2.1079321 304
-23.799887 -3.8627069 2.1048014 295
-23.822889 -4.0166178 2.1089759 313
-23.821348 -4.1668363 2.111063 307
-23.783567 -4.3107905 2.1100194 321
-23.75667 -4.4566426 2.1100194 269
-23.787558 -4.6137085 2.1152372 310
-23.735357 -4.7548828 2.1131501 301
-23.740854 -4.907691 2.1162808 307
-23.698605 -5.0507779 2.1152372 293
-23.690519 -5.2012219 2.1173246 278
-23.634838 -5.3412161 2.1152372 279
-23.683128 -5.5050826 2.1225424 298
-23.637276 -5.6475177 2.1214986 280
-23.637011 -5.8009949 2.1246295 296
-23.624155 -5.9517608 2.1267166 300
-23.61034 -6.1025872 2.1288037 296
-23.618671 -6.2595925 2.132978 290
-23.579819 -6.4043961 2.132978 272
-23.586147 -6.5617752 2.1371522 272
-23.55694 -6.7096486 2.138196 281
-23.515326 -6.8540649 2.138196 297
-23.55302 -7.0221319 2.1455009 294
-23.475183 -7.1560607 2.1423702 278
-23.54497 -7.335526 2.152806 268
-23.636213 -7.5233679 2.165329 211
-70.247742 -22.835379 6.4481559 17
-69.584381 -23.092773 6.4001513 16
-25.192137 -8.5323982 2.3218648 72
-24.608257 -8.5033102 2.2728169 106
-24.634542 -8.6819582 2.280122 72
-24.423304 -8.7763519 2.2655118 69
-24.526146 -8.9836082 2.280122 45
-24.291365 -9.0670414 2.2634246 97
-25.341492 -9.6365795 2.3667386 66
-24.624176 -9.5371542 2.3051677 59
-24.231565 -9.556489 2.2738605 125
-24.472004 -9.8252497 2.302037 77
-25.152697 -10.278199 2.3719566 69
-24.592432 -10.225796 2.3249955 84
-24.584276 -10.399788 2.3302135 53
-23.883095 -10.27639 2.2696862 24
-23.797686 -10.413157 2.2675991 99
-110.95867 -56.898689 10.885432 11
-111.80802 -65.367897 11.305992 10
-23.064295 -16.079554 2.4543989 103
-22.75038 -16.06904 2.4314401 173
-22.544413 -16.131809 2.419961 126
-22.406288 -16.24177 2.4157865 150
-22.315845 -16.386023 2.4168303 145
-22.20529 -16.515507 2.4157865 149
-22.151276 -16.68741 2.4210043 147
-22.229044 -16.960794 2.4408324 172
-28.320408 -21.884748 3.1243732 14
-27.168848 -21.262402 3.0116673 18
-27.581272 -21.859373 3.0721946 14
-26.775356 -21.489449 2.9970572 16
-27.060465 -21.99262 3.044018 12
-25.888527 -21.57305 2.9417479 14
-22.886738 -19.310814 2.6140656 20
-22.695103 -19.38876 2.6057169 147
-22.539543 -19.496365 2.6015427 118
-22.338552 -19.563414 2.5921504 132
-22.262815 -19.739767 2.5973682 109
-22.239132 -19.963842 2.6088476 114
-22.319693 -20.284849 2.6328499 118
-22.335564 -20.550928 2.6495471 143
-22.314014 -20.785368 2.66207 16
-25.664974 -24.202579 3.0794997 20
-25.202715 -24.357857 3.0596716 23
-25.283493 -24.73777 3.0878479 17
-25.691795 -25.44768 3.1567242 10
-25.374777 -25.444014 3.1368961 21
-22.676216 -23.30315 2.8384337 35
-22.549374 -23.459089 2.8405211 103
-22.446165 -23.640356 2.8457391 77
-24.194288 -26.439541 3.1285477 18
-21.380667 -26.124918 2.9469657 21
-69.605324 -97.836578 10.481569 10
-38.472538 -54.785206 5.8439269 11
-37.686195 -54.371777 5.7750511 30
-37.250622 -54.453987 5.7593975 45
-36.708439 -54.374378 5.7270465 38
-36.168644 -54.290176 5.6946955 28
-35.710075 -54.321285 5.6748681 37
-35.232975 -54.318729 5.6519094 44
-34.770138 -54.332504 5.6310372 27
-34.231888 -54.221355 5.5976434 41
-33.683674 -54.085361 5.5621619 32
-33.244804 -54.117863 5.5444212 28
-32.726276 -54.014099 5.513114 39
-32.363575 -54.162575 5.5078959 36
-31.806086 -53.979053 5.4692836 33
-31.288109 -53.85276 5.436933 35
-30.814478 -53.794769 5.4118872 30
-30.401525 -53.837097 5.3972774 40
-29.919445 -53.751045 5.3701444 38
-29.49707 -53.765919 5.353447 40
-29.081329 -53.788158 5.3377934 26
-28.638327 -53.754578 5.3169222 34
-28.152382 -53.632904 5.2877016 47
-27.701963 -53.571022 5.2647433 38
-27.264221 -53.526947 5.2438717 39
-26.849506 -53.522259 5.2271748 40
-26.425291 -53.493073 5.2083902 36
-26.023363 -53.503704 5.1937804 49
-25.596489 -53.457508 5.1739521 45
-25.186453 -53.44054 5.1572552 38
-24.727293 -53.312111 5.1301222 58
-24.360004 -53.375828 5.1217737 31
-23.865553 -53.1535 5.0862923 39
-23.519642 -53.255192 5.082118 45
-23.097183 -53.179203 5.0612464 44
-22.718801 -53.19899 5.049767 39
-22.285521 -53.08387 5.0257649 37
-21.881868 -53.03175 5.0080242 48
-21.511141 -53.05423 4.9975882 58
-21.101149 -52.974209 4.9777603 47
-20.740864 -53.013622 4.9694118 59
-20.342306 -52.95018 4.9516711 44
-19.924217 -52.827923 4.9287124 61
-19.587246 -52.915546 4.9255819 71
-19.200977 -52.866192 4.9099283 64
-18.820068 -52.825356 4.895318 44
-18.444324 -52.793121 4.8817515 64
-18.08131 -52.792206 4.871316 63
-17.692373 -52.709492 4.8535748 69
-17.331278 -52.703495 4.8431392 58
-16.996574 -52.774712 4.8400087 45
-16.553806 -52.501766 4.8055706 62
-16.256023 -52.682312 4.8128757 42
-15.87719 -52.59795 4.7961783 44
-15.523698 -52.591194 4.7867866 59
-15.167573 -52.570595 4.776351 70
-14.792826 -52.478573 4.7596536 55
-14.438818 -52.453094 4.749218 64
-14.091884 -52.448341 4.740869 55
-13.733429 -52.395054 4.7283463 59
-13.393921 -52.40884 4.722085 45
-13.020094 -52.281235 4.7033005 62
-12.699057 -52.360138 4.7033005 43
-12.330853 -52.239281 4.6855597 48
-11.994039 -52.244049 4.6792984 54
-11.655025 -52.234989 4.6719933 59
-11.311512 -52.200367 4.662601 61
-10.963944 -52.140102 4.6511216 65
-10.705904 -52.510948 4.6782546 12
-9.6311007 -52.123093 4.6271195 62
-9.2942982 -52.087059 4.6187711 92
-9.0089941 -52.343388 4.6365118 47
-8.867548 -53.482685 4.7325206 19
-8.5889645 -56.057156 4.9506273 16
-8.3560734 -56.865765 5.0174165 43
-8.2934389 -58.952095 5.1969109 29
-7.9697852 -59.286224 5.2219567 10
-7.8697352 -64.529671 5.6748681 12
-4.0223966 -51.197929 4.4831066 10
-3.666743 -50.649326 4.4330149 38
-0.80100411 -12.094409 1.058097 41
-0.73107994 -12.170694 1.0643584 173
-0.65123963 -12.079453 1.0560098 154
-0.57311708 -11.999636 1.0487049 149
-0.49947789 -12.002927 1.0487049 101
-0.41014165 -11.563725 1.0100926 148
-0.33882982 -11.554074 1.0090489 209
-0.27901283 -12.033989 1.0507919 122
-0.20659472 -12.119144 1.058097 165
-0.13248999 -12.144092 1.0601841 168
-0.057687428 -12.084904 1.0549662 36
0.016106907 -11.82203 1.0320076 143
0.088197023 -11.761938 1.0267897 159
0.6237362 -45.744766 3.99367 39
0.89755559 -45.393463 3.9634066 63
1.1673973 -45.052486 3.9341865 48
1.4384505 -44.877201 3.9195766 50
1.6973583 -44.437481 3.8820081 48
1.9556909 -44.103771 3.8538313 57
2.2105956 -43.780518 3.8266985 70
2.4649882 -43.515488 3.8047836 49
2.7109668 -43.165474 3.7755632 57
2.960969 -42.933353 3.756779 56
3.1992688 -42.580593 3.7275591 46
3.441102 -42.321857 3.7066875 59
3.6757138 -42.01413 3.6816418 64
3.9089098 -41.728931 3.6586831 53
4.1458726 -41.513836 3.6419859 53
4.3664737 -41.166641 3.6138091 65
4.5923085 -40.901478 3.5929379 72
4.8122411 -40.611359 3.5699794 71
5.0391445 -40.403126 3.5543256 54
5.2574649 -40.146233 3.5344977 61
5.469574 -39.864502 3.5125828 77
5.6801224 -39.593521 3.4917111 66
5.8946338 -39.368763 3.4750142 71
6.0955453 -39.071999 3.4520555 81
6.3045292 -38.845055 3.4353583 80
6.5109587 -38.617031 3.4186609 84
6.7189484 -38.411491 3.4040511 90
6.9203973 -38.181335 3.3873537 83
7.1236854 -37.97366 3.3727436 71
7.3064766 -37.671047 3.3497851 84
7.5046096 -37.461403 3.335175 90
7.7077065 -37.285873 3.3236959 79
7.8939819 -37.039116 3.3059552 80
8.0800838 -36.803158 3.289258 94
8.2635889 -36.566319 3.2725606 76
7.7786613 -33.464176 2.9991446 52
7.9060616 -33.090248 2.9699242 130
8.0719099 -32.890186 2.956358 92
8.2677269 -32.816853 2.9542706 124
8.4868813 -32.834953 2.9605322 95
8.6943178 -32.80537 2.9626193 118
8.9706459 -33.028286 2.9876652 102
9.695406 -34.849911 3.1577675 91
9.8664875 -34.640305 3.1442013 111
10.042053 -34.452866 3.1327219 103
10.212276 -34.253124 3.120199 91
10.467572 -34.33847 3.1337652 65
10.766971 -34.558937 3.1598549 60
11.091219 -34.845352 3.1922054 46
11.434167 -35.174557 3.2287307 52
11.721321 -35.319313 3.2485588 53
12.056698 -35.597729 3.2809093 55
12.395929 -35.873352 3.3132601 60
12.750912 -36.179955 3.3487415 68
12.956498 -36.056038 3.3445675 89
13.161043 -35.930962 3.3403931 87
13.297654 -35.62553 3.3195214 112
13.473507 -35.43153 3.3090858 85
13.651798 -35.24786 3.2996936 82
13.815188 -35.029984 3.2871709 82
13.989781 -34.844711 3.2777786 93
14.153579 -34.636486 3.2662992 120
14.31994 -34.438606 3.2558637 80
14.493722 -34.262012 3.247515 83
14.656427 -34.062626 3.2370794 102
14.822025 -33.873486 3.2276871 88
14.956699 -33.618065 3.2120335 89
15.113432 -33.416737 3.2015977 100
15.263266 -33.203892 3.1901186 89
15.451535 -33.077122 3.1869879 89
15.623445 -32.916889 3.1807261 85
15.768011 -32.701958 3.1692469 93
15.910531 -32.486492 3.1577675 100
16.056328 -32.281223 3.147332 108
16.23793 -32.150082 3.1442013 106
16.380344 -31.943466 3.1337652 106
16.537397 -31.768131 3.1264603 112
16.659409 -31.528656 3.1128938 117
16.846901 -31.415306 3.1118503 131
16.987917 -31.216843 3.1024582 96
17.144468 -31.049225 3.0961967 95
17.287918 -30.860008 3.0878479 113
17.441507 -30.69099 3.0815866 113
16.316053 -28.304852 2.8520005 82
16.374783 -28.008121 2.8321726 65
16.491457 -27.814575 2.8227806 45
16.520138 -27.477219 2.7987783 61
16.694645 -27.38554 2.7998216 67
16.79323 -27.170729 2.7883422 71
16.953283 -27.057049 2.7872989 111
17.15744 -27.013062 2.7935603 127
17.413462 -27.047998 2.8081703 115
18.911779 -28.98303 3.0210595 100
19.049696 -28.806614 3.0147977 86
19.172852 -28.609741 3.0064495 111
19.301025 -28.422333 2.9991446 112
19.468281 -28.293518 2.9981008 103
19.614172 -28.134304 2.9939265 108
19.738155 -27.945074 2.9866216 128
19.874468 -27.774826 2.9814036 103
20.00242 -27.594282 2.9751422 117
20.143057 -27.432486 2.970968 123
20.325268 -27.327557 2.9730549 109
20.435022 -27.125946 2.9647067 133
20.535814 -26.914511 2.9553142 120
20.678642 -26.759621 2.9521835 133
20.812977 -26.594578 2.9480093 125
20.975765 -26.466372 2.9480093 135
21.100351 -26.290552 2.9427912 129
21.253733 -26.151312 2.9417479 135
21.353022 -25.946564 2.9333992 122
21.534782 -25.842607 2.9365299 129
21.615854 -25.61862 2.9260943 113
21.77264 -25.485504 2.9260943 147
21.959887 -25.387594 2.9302683 152
22.083746 -25.216402 2.9260943 130
22.190468 -25.026752 2.9198327 144
22.311668 -24.85454 2.9156582 139
22.439632 -24.69063 2.9125278 113
22.606899 -24.570074 2.9146149 135
22.683897 -24.352171 2.9052227 156
22.873901 -24.256014 2.9104407 131
22.989285 -24.080618 2.9062665 175
23.136606 -23.939106 2.9062665 136
23.257978 -23.771057 2.9031358 139
23.369745 -23.593927 2.8989613 92
22.19359 -22.133198 2.7361636 121
22.150139 -21.820425 2.7142487 129
22.163662 -21.567383 2.6996386 104
22.330053 -21.464121 2.7038128 99
22.548027 -21.409016 2.7142487 105
22.844639 -21.425642 2.7340765 77
24.238499 -22.454969 2.884351 133
24.402283 -22.330034 2.8874822 152
24.538837 -22.179884 2.8874822 146
24.66555 -22.020937 2.8864384 165
24.818136 -21.884991 2.8885255 159
24.933924 -21.716595 2.8864384 176
25.075769 -21.570992 2.8874822 133
25.189432 -21.401241 2.8853948 165
25.347746 -21.269331 2.8885255 159
25.468573 -21.105774 2.8874822 160
25.616096 -20.964245 2.889569 167
25.69776 -20.7691 2.884351 147
25.862087 -20.64086 2.8885255 161
25.997641 -20.489185 2.889569 158
26.075697 -20.29257 2.884351 161
26.247116 -20.168612 2.889569 168
26.360849 -19.999956 2.8885255 152
26.502209 -19.852169 2.8906128 174
26.642742 -19.703396 2.8926997 157
26.753485 -19.532499 2.8916564 156
26.892225 -19.381954 2.8937433 140
27.020388 -19.223513 2.8947871 150
27.137831 -19.057358 2.8947871 122
27.28373 -18.910913 2.8979177 122
27.448586 -18.776896 2.9031358 110
27.523649 -18.581366 2.8989613 91
27.647091 -18.41876 2.9000046 107
27.829512 -18.294743 2.9073098 88
27.891096 -18.091114 2.902092 104
28.092197 -17.977629 2.911484 115
28.181763 -17.792158 2.9093971 118
28.341141 -17.650501 2.9146149 109
28.459093 -17.482527 2.9156582 119
28.54538 -17.295189 2.9135714 132
28.733061 -17.168766 2.9219201 134
28.899662 -17.028553 2.9281814 108
28.95192 -16.820879 2.9229634 95
29.158319 -16.702337 2.9333992 98
29.291483 -16.540745 2.9365299 105
29.361088 -16.343262 2.9333992 111
29.513218 -16.191547 2.938617 129
29.622528 -16.015839 2.9396605 111
29.825748 -15.889986 2.9500964 145
29.965025 -15.728905 2.9542706 126
30.039736 -15.533765 2.9521835 117
30.219702 -15.392559 2.9605322 138
30.367006 -15.233645 2.96575 121
30.49206 -15.062914 2.9688807 131
30.648415 -14.906908 2.9751422 132
30.782434 -14.739223 2.9793165 117
30.904734 -14.565358 2.9824471 136
31.015211 -14.385515 2.9845343 114
31.244278 -14.259464 2.9981008 127
31.30937 -14.057691 2.9960134 129
31.493458 -13.908782 3.0054059 111
31.600138 -13.724804 3.0074928 111
31.705746 -13.540042 3.0095801 140
31.821297 -13.359126 3.0127108 113
32.024227 -13.21378 3.0241902 115
32.149014 -13.035002 3.0283644 134
32.295025 -12.864037 3.0346258 128
32.440147 -12.69177 3.0408874 129
32.606689 -12.526779 3.0492361 121
32.705307 -12.334909 3.0513232 106
32.881279 -12.171351 3.0607154 101
32.977814 -11.977528 3.0628023 115
33.140774 -11.807051 3.071151 130
33.348026 -11.650795 3.083674 115
33.396267 -11.438209 3.0815866 94
33.545151 -11.259706 3.0888917 104
33.738529 -11.094744 3.1003709 121
33.840103 -10.898513 3.1035016 118
34.020355 -10.726618 3.1139376 144
34.142643 -10.535294 3.1191552 109
34.240978 -10.335964 3.1222858 27
37.009605 -10.924376 3.3685694 10
36.869194 -10.637433 3.3497851 27
36.910759 -10.404521 3.3476982 12
35.002987 -9.6353083 3.1692469 50
35.026814 -9.411047 3.1661162 81
35.164845 -9.2171659 3.1734211 95
35.35973 -9.036746 3.1859441 102
35.542114 -8.8513908 3.1974235 120
35.711933 -8.6613188 3.207859 113
35.834217 -8.4585094 3.2141206 96
35.978649 -8.2598743 3.2224691 131
36.203667 -8.0780087 3.2381227 104
36.357704 -7.8785009 3.247515 94
36.557442 -7.6872454 3.2610812 83
36.756203 -7.4938345 3.274648 80
37.000866 -7.3075376 3.2923884 67
37.397266 -7.1476941 3.3236959 68
37.957664 -7.0136685 3.3696132 25
50.592438 -9.0276022 4.486237 11
42.482433 -7.3117924 3.7630405 29
42.856712 -7.1057382 3.7922604 20
42.982143 -6.8558216 3.7995656 43
43.200649 -6.6191168 3.8152192 11
43.228622 -6.35218 3.8141754 12
44.550186 -4.8790879 3.9122715 37
45.64423 -3.5860667 3.9968011 14
1.346343 -0.097468108 0.11783688 13
1.501985 -0.099475399 0.13140334 20
1.3474377 -0.080939069 0.11783688 35
1.4434067 -0.077818394 0.12618548 34
1.3841523 -0.066108778 0.1209676 36
1.6353601 -0.068052255 0.14288266 38
1.6476939 -0.058440331 0.14392623 40
1.5165781 -0.04447452 0.13244691 47
1.6004817 -0.037107807 0.13975194 57
1.4811512 -0.025249146 0.1293162 68
1.5410475 -0.016812567 0.13453406 59
1.5052583 -0.0071853683 0.13140334 33
1.5530921 0.002116008 0.13557763 46
1.4215537 0.010659537 0.12409832 41
1.4573219 0.019870786 0.12722905 35
1.4571725 0.028812371 0.12722905 38
1.5645231 0.040539823 0.13662122 33
1.3372252 0.042862125 0.11679331 15
1.1574566 0.051325027 0.10113971 13
42.658222 2.153928 3.7286026 27
42.524849 2.4088721 3.7181666 19
42.163269 2.6480243 3.6879032 44
41.907703 2.8902333 3.6670318 25
41.841496 3.1437371 3.6628575 10
40.895763 3.8308635 3.585633 19
40.310719 4.2756872 3.538672 38
33.642864 3.7773306 2.9553142 14
33.642796 3.9865017 2.9574013 12
33.309273 4.154387 2.9302683 14
32.829414 4.5043306 2.8926997 15
32.700733 4.8962383 2.8864384 18
32.64645 5.0931082 2.884351 11
37.780071 6.3698449 3.3445675 10
37.169731 6.7370434 3.2976065 51
36.927948 6.9275141 3.2798655 23
36.591351 7.097064 3.2537763 25
36.652611 7.3425846 3.2631686 38
36.349312 7.5141015 3.2402101 15
36.010227 7.6746988 3.2141206 34
35.857368 7.872437 3.2047284 11
35.808388 8.0923052 3.2047284 11
35.36216 8.2198429 3.1692469 52
34.833916 8.7758961 3.1358526 27
34.74469 8.9804935 3.1327219 16
33.419937 9.740984 3.0388 22
32.881161 10.244253 3.0064495 48
32.783508 10.434937 3.0033185 22
31.578449 11.347506 2.929225 54
31.040186 11.803616 2.8989613 98
31.190126 12.080203 2.9198327 53
31.059814 12.249426 2.9146149 45
31.239223 12.542217 2.938617 14
31.781389 12.986895 2.9970572 23
30.155741 12.539079 2.8509569 33
29.924097 12.65867 2.8363469 20
29.768993 12.808969 2.829042 49
29.755548 13.020139 2.8353031 23
29.544033 13.144159 2.8227806 16
29.321224 13.261148 2.8092139 21
33.81216 15.542875 3.2485588 11
27.879951 14.296608 2.7351203 53
27.961365 14.555726 2.7518175 17
27.850386 14.71585 2.7497301 36
27.517256 14.756517 2.725728 51
27.35269 14.885082 2.7184229 54
26.411699 15.879516 2.6902466 16
26.089205 15.904379 2.6672878 70
25.919945 16.020164 2.6599829 120
25.800898 16.16621 2.6578958 110
25.660852 16.29858 2.6537213 106
25.148249 16.190405 2.6109347 64
24.79814 16.181089 2.5848455 80
24.299532 16.06918 2.5431025 127
23.932344 16.038288 2.514926 129
23.60602 16.030367 2.4909239 118
23.320097 16.046154 2.471096 77
22.966228 16.011185 2.4439631 90
22.584383 15.951795 2.4136994 107
22.320807 15.971807 2.3959587 109
21.922335 15.890964 2.3636079 98
21.564249 15.834142 2.3354313 108
21.255655 15.809203 2.3124728 116
20.995932 15.817045 2.2947319 116
20.727413 15.815048 2.2759476 101
20.40296 15.766498 2.2509019 132
20.079891 15.714567 2.2258561 103
19.842556 15.7261 2.2102025 126
19.531258 15.675456 2.1862004 130
19.249165 15.644209 2.165329 124
18.958967 15.602499 2.1434138 112
18.725119 15.603741 2.1277602 152
18.418879 15.541032 2.1037581 111
18.186834 15.537279 2.0881045 103
17.964577 15.539088 2.0734942 88
17.716007 15.515133 2.0557537 147
17.4058 15.433199 2.0307078 153
17.204023 15.443878 2.0181849 153
16.985085 15.436586 2.0035748 173
16.731697 15.394815 1.9847906 163
16.505709 15.374967 1.969137 170
16.271902 15.344726 1.9524397 167
16.030447 15.303946 1.9346991 174
15.824494 15.294018 1.9211326 163
15.653451 15.315583 1.9117404 158
15.414793 15.268327 1.8939997 171
15.219519 15.261046 1.8814766 158
15.00814 15.234917 1.8668667 179
14.822669 15.232475 1.8553873 180
14.604659 15.193859 1.8397337 212
14.420612 15.187824 1.8282545 183
14.179946 15.119068 1.8094702 179
14.021915 15.135633 1.8011215 169
13.848078 15.133193 1.7906859 189
13.666784 15.120323 1.7792065 195
13.462289 15.079048 1.7645965 201
13.266726 15.044805 1.75103 185
13.095648 15.035778 1.7405943 194
12.917387 15.016158 1.729115 209
12.747603 15.004031 1.7186792 213
12.578459 14.99039 1.7082435 209
12.425219 14.993649 1.6998949 212
12.279987 15.004848 1.6925899 209
12.074972 14.940451 1.6769363 231
11.938329 14.958199 1.6706748 231
11.764925 14.927889 1.6591954 213
11.562978 14.858281 1.6435418 186
11.435172 14.881555 1.638324 232
11.307518 14.903821 1.6331062 204
11.144186 14.877243 1.6226704 235
11.002934 14.878061 1.6153654 179
10.826847 14.829433 1.6028426 180
10.658765 14.788906 1.5913633 236
10.51931 14.785842 1.5840582 258
10.394037 14.801193 1.5788403 250
10.234923 14.76644 1.5684047 231
10.090128 14.750028 1.560056 238
9.952611 14.742306 1.5527511 240
9.835454 14.763301 1.5485767 278
9.6790142 14.723477 1.5381409 253
9.5169306 14.672266 1.5266615 242
9.4073925 14.700177 1.523531 259
9.2787256 14.696972 1.5172694 283
9.1378145 14.672449 1.5089209 267
9.0100698 14.667125 1.5026594 272
8.8765411 14.650563 1.4953544 261
8.743556 14.632917 1.4880493 269
8.6171932 14.624495 1.481788 278
8.4912643 14.615074 1.4755265 275
8.3598337 14.594288 1.4682215 246
8.2348585 14.58285 1.4619601 245
8.1103392 14.570432 1.4556986 189
7.9690342 14.525594 1.4463063 203
7.8740716 14.563702 1.4452629 232
7.739594 14.527337 1.4369142 272
7.6391983 14.553383 1.4348271 271
7.5223012 14.546888 1.4296093 272
7.3786435 14.486246 1.4191735 291
7.2788978 14.509877 1.4170862 291
7.1579623 14.48996 1.410825 303
7.0427742 14.479854 1.405607 244
6.9124932 14.436538 1.3972585 292
6.8135891 14.457053 1.3951713 309
6.699604 14.444364 1.3899535 279
6.5810685 14.419948 1.383692 293
6.4777756 14.42734 1.3805612 323
6.3746405 14.434008 1.3774306 304
6.2621427 14.418025 1.3722126 290
6.1547775 14.412202 1.3680384 293
6.0292106 14.361515 1.3596898 245
5.9820142 14.497696 1.369082 272
5.8749776 14.489814 1.3649076 169
6.5335817 16.402487 1.5412717 36
6.5721927 16.798517 1.574666 23
6.4647083 16.827368 1.5736225 28
6.513206 17.269394 1.611191 29
6.4735193 17.488413 1.6278883 41
6.4436302 17.741293 1.6477162 49
6.422915 18.028244 1.6706748 32
5.0346913 14.410778 1.3325568 164
4.926806 14.384851 1.3273389 251
6.3068171 18.789402 1.7301584 32
6.2735667 19.077585 1.7531171 53
6.1417317 19.070204 1.7489427 44
5.9742765 18.947912 1.7343328 51
5.826179 18.881405 1.7249407 56
5.6618505 18.756577 1.7103307 74
5.5466557 18.790964 1.7103307 77
5.3914847 18.686811 1.6978077 24
4.0345054 14.312687 1.2981189 260
3.9085357 14.198863 1.285596 360
3.8120337 14.187943 1.2824653 314
3.7158132 14.176373 1.2793345 348
3.6228385 14.175742 1.2772474 296
3.2786763 13.165285 1.1843693 446
3.1837456 13.127067 1.1791515 487
3.1003931 13.13472 1.178108 418
3.009042 13.10689 1.1739336 379
2.9181495 13.078436 1.1697593 341
2.8454418 13.131145 1.1728901 451
2.7525172 13.089864 1.1676723 500
2.6697595 13.094793 1.1666286 501
2.5847285 13.087472 1.1645415 484
2.4998882 13.079601 1.1624544 506
2.4108975 13.047671 1.15828 463
2.3286932 13.05045 1.1572365 470
2.244518 13.040931 1.1551493 462
2.1605473 13.03087 1.1530622 475
2.0805507 13.043882 1.1530622 475
1.9986652 13.044586 1.1520185 494
1.9098976 12.997466 1.1468006 423
1.831776 13.020778 1.1478443 495
1.7502549 13.019924 1.1468006 477
1.6672933 13.006704 1.1447136 472
1.5831126 12.98109 1.1415828 481
1.502058 12.978683 1.1405393 487
1.4210925 12.975773 1.1394957 473
1.3365338 12.936683 1.1353214 482
1.2582862 12.956538 1.1363649 472
1.1765976 12.940205 1.1342778 494
1.097176 12.94718 1.1342778 483
1.0158403 12.929833 1.1321907 529
0.93562198 12.9239 1.1311471 501
0.85551476 12.917469 1.1301036 472
0.77480495 12.898609 1.1280164 482
0.69564599 12.90312 1.1280164 533
0.61474991 12.871323 1.1248857 509
0.5362584 12.886797 1.1259292 516
0.45717639 12.889845 1.1259292 397
0.37667549 12.844609 1.1217549 442
0.29868665 12.882533 1.1248857 505
0.21963529 12.884123 1.1248857 530
0.14018442 12.849366 1.1217549 452
0.061396617 12.861939 1.1227984 534
-0.017491339 12.838165 1.1207114 496
-0.096085235 12.813908 1.1186242 307
-0.17454509 12.801124 1.1175807 439
-0.25332436 12.811764 1.1186242 475
-0.33069244 12.762166 1.11445 311
-0.41512114 12.951072 1.1311471 157
-0.54340255 14.226483 1.2428095 274
-0.63174355 14.246767 1.2448967 356
-0.71914816 14.242622 1.2448967 343
-0.80584961 14.226007 1.2438531 352
-0.89537156 14.256587 1.2469838 401
-0.98200893 14.238899 1.2459402 378
-1.0648804 14.173001 1.2407224 334
-1.1586058 14.249606 1.2480274 324
-1.2418504 14.194592 1.2438531 302
-1.3289233 14.186706 1.2438531 300
-1.4206982 14.225866 1.2480274 275
-1.5054379 14.193106 1.2459402 252
-1.5951644 14.207361 1.2480274 262
-1.678089 14.161691 1.2448967 207
-1.7664315 14.162991 1.2459402 194
-1.8579576 14.187446 1.249071 170
-1.9401001 14.140247 1.2459402 146
-2.0353148 14.187244 1.2511581 128
-2.1152468 14.127197 1.2469838 101
-2.2111034 14.173011 1.2522017 114
-2.3056865 14.206377 1.2563759 122
-2.3848617 14.144811 1.2522017 113
-2.477787 14.165237 1.2553324 82
-2.5625246 14.138004 1.2542888 109
-2.655838 14.157264 1.2574196 97
-2.7472079 14.164173 1.2595067 96
-2.8364141 14.158772 1.2605503 109
-2.9087167 14.070859 1.2542888 276
-3.0224097 14.181357 1.2657682 116
-3.0991137 14.11584 1.2615938 119
-3.1883037 14.108219 1.2626375 90
-2.7794948 11.95752 1.0716634 263
-2.8166981 11.789086 1.058097 273
-2.8490908 11.609041 1.043487 268
-2.9144278 11.568156 1.0413997 270
-2.9853539 11.550056 1.0413997 241
-3.0224795 11.404408 1.0299205 218
-3.0955322 11.397185 1.030964 183
-3.1397727 11.28584 1.0226154 238
-3.1991379 11.231871 1.0194848 246
-3.2713404 11.223506 1.0205283 199
-3.3298981 11.168854 1.0173975 190
-3.4018521 11.159647 1.0184411 211
-3.4631505 11.115736 1.016354 206
-3.5276644 11.082886 1.0153104 207
-3.6251671 11.151984 1.023659 190
-3.6784644 11.084146 1.0194848 215
-3.7617462 11.106658 1.023659 198
-3.8298244 11.083367 1.023659 179
-3.9176264 11.116033 1.0288769 232
-3.9978874 11.125536 1.0320076 216
-4.0989704 11.190598 1.0403562 228
-4.1759181 11.187636 1.0424433 221
-4.2912259 11.284716 1.0539227 204
-4.3776569 11.302763 1.058097 232
-4.495172 11.39802 1.0695763 236
-5.8913369 13.926655 1.320034 50
-5.9766784 13.890244 1.320034 53
-6.1145096 13.973783 1.3315133 42
-6.1758389 13.88139 1.3262954 42
-6.2904553 13.908588 1.3325568 44
-6.3906574 13.902314 1.3356876 56
-6.4910188 13.895333 1.3388183 56
-6.6017866 13.909243 1.3440362 48
-6.6402788 13.77156 1.3346441 65
-6.7141385 13.709085 1.3325568 154
-7.473731 13.73366 1.3649076 168
-7.4769588 13.541031 1.3502976 321
-7.589118 13.547047 1.3555155 410
-7.6839113 13.521012 1.3576027 253
-8.4605083 13.502776 1.3909971 174
-9.5025644 13.63035 1.4504807 32
-9.5791235 13.562023 1.4494373 24
-9.7939415 13.511205 1.4567422 33
-10.058888 13.524292 1.4713522 38
-10.120104 13.433673 1.4682215 142
-10.303863 13.504379 1.4828315 36
-10.313433 13.34631 1.4723959 34
-10.535114 13.461646 1.4922236 33
-10.59524 13.368645 1.4890929 54
-10.729447 13.368644 1.496398 64
-10.818813 13.311835 1.4974416 156
-10.862307 13.199047 1.4922236 163
-10.843601 13.012759 1.4786571 168
-9.5741386 11.347053 1.2960318 192
-9.5504017 11.179022 1.2835089 246
-9.587532 11.084045 1.2793345 266
-9.576602 10.935076 1.2688988 266
-9.6355867 10.867165 1.2678553 265
-9.6621571 10.763357 1.2626375 237
-9.6958561 10.668482 1.2584631 247
-9.7287569 10.573599 1.2542888 231
-9.7853041 10.504958 1.2532452 214
-9.8577785 10.453416 1.2542888 214
-9.9464989 10.418674 1.2574196 225
-10.051779 10.400427 1.2626375 211
-10.148847 10.372733 1.2668117 252
-10.220715 10.31876 1.2678553 213
-10.393877 10.365593 1.2814218 220
-10.593544 10.435855 1.2981189 168
-13.416143 13.055203 1.6341497 85
-13.547709 13.022345 1.6404111 76
-13.670703 12.980128 1.6456289 71
-13.767529 12.912358 1.6477162 50
-13.732493 12.722023 1.6341497 39
-13.995502 12.807 1.6560647 40
-14.135901 12.776997 1.6633698 46
-14.196198 12.674097 1.6612827 53
-14.291631 12.602566 1.6633698 52
-14.530953 12.655963 1.6821541 69
-14.563023 12.527585 1.6769363 94
-14.703388 12.492174 1.6842413 116
-14.87134 12.478563 1.694677 128
-15.104105 12.516753 1.7124177 147
-15.236131 12.469269 1.7186792 146
-15.386735 12.435662 1.7270278 154
-15.556184 12.415587 1.7374635 132
-15.772908 12.430899 1.7531171 154
-15.914926 12.385278 1.7604221 148
-16.104372 12.374801 1.772945 136
-16.256189 12.333558 1.7812937 138
-16.465509 12.333919 1.7959037 142
-16.656219 12.317954 1.8084265 137
-16.876314 12.321259 1.8240801 146
-17.038881 12.280383 1.8334723 132
-17.240543 12.265695 1.8470387 119
-17.452446 12.25586 1.8616489 137
-17.625568 12.216643 1.8720845 117
-17.917267 12.256757 1.8950431 116
-18.0714 12.2001 1.9033918 125
-18.195662 12.122127 1.9086096 175
