# .PCD v0.7 - Point Cloud Data file format
VERSION 0.7
FIELDS x y z intensity
SIZE 4 4 4 4
TYPE F F F F
COUNT 1 1 1 1
WIDTH 1402
HEIGHT 1
VIEWPOINT 0 0 0 1 0 0 0
POINTS 1402
DATA ascii
-21.524065 -53.094753 8.139533 65
-21.123146 -53.038181 8.1108389 70
-20.728064 -52.989765 8.0838327 61
-20.381233 -53.060501 8.0753927 77
-19.942095 -52.884407 8.0298185 77
-19.588362 -52.92778 8.0180035 61
-19.198349 -52.868301 7.9909968 72
-18.785889 -52.738884 7.9538627 61
-18.422758 -52.740997 7.9369836 69
-18.05261 -52.718166 7.9167285 54
-17.694778 -52.726574 7.9015379 67
-17.333815 -52.721291 7.8846588 69
-16.991789 -52.770111 7.8762188 57
-16.603382 -52.669418 7.8458366 80
-16.209848 -52.543247 7.812078 65
-15.88028 -52.618973 7.8087025 67
-15.462957 -52.396366 7.7614408 71
-15.144462 -52.501675 7.7631288 62
-14.793029 -52.490696 7.7479377 74
-14.417081 -52.385742 7.719243 65
-14.076884 -52.404373 7.7091155 63
-13.73399 -52.409313 7.6973004 60
-13.385684 -52.388996 7.6821089 68
-13.038146 -52.366386 7.6669183 81
-12.68299 -52.306847 7.6466632 74
-12.329058 -52.244926 7.6264081 86
-12.008257 -52.319592 7.6264081 77
-11.637858 -52.17197 7.5943375 56
-11.297395 -52.149509 7.5808344 73
-10.97231 -52.194592 7.5774584 66
-10.620998 -52.1096 7.5555158 76
-10.284951 -52.092197 7.5437007 70
-9.9495173 -52.072632 7.5318847 65
-9.6211863 -52.085972 7.5251336 62
-9.2847214 -52.050457 7.5116301 53
-8.9389811 -51.954235 7.489687 72
-8.6103153 -51.949501 7.4812479 50
-8.2839146 -51.954426 7.4744959 70
-7.964972 -52.004276 7.4744959 107
-7.7078862 -52.475334 7.5352607 24
-7.6091056 -54.109905 7.7631288 16
-7.4573216 -55.497913 7.9555507 22
-7.2434859 -56.532509 8.0973349 44
-6.8835344 -56.469753 8.0821447 60
-6.5246263 -56.404705 8.0669527 66
-6.1693611 -56.361008 8.0551376 56
-5.812438 -56.291443 8.0399466 79
-5.4508624 -56.160492 8.0163155 58
-5.0975647 -56.098228 8.0028124 42
-4.747241 -56.057419 7.9926848 46
-4.3938913 -55.967052 7.9758058 56
-0.86253977 -11.923796 1.6984614 74
-0.80348074 -12.142249 1.7288437 106
-0.71899831 -11.980919 1.705213 87
-0.70616889 -13.112139 1.8655646 45
-0.58494055 -12.261786 1.7440349 46
-2.0931559 -50.369297 7.1622324 30
-0.45502737 -12.849831 1.8267426 60
-0.35392833 -12.092341 1.7187164 197
-0.27807617 -12.02302 1.7085888 197
-0.22286712 -13.117367 1.8638767 99
-0.13103001 -12.073048 1.7153405 180
-0.056780603 -12.037982 1.7102767 188
0.016932392 -11.931178 1.6950855 136
0.093910277 -12.429825 1.7659777 166
0.16936322 -12.369617 1.7575383 129
0.26787063 -13.508667 1.9195777 90
0.34489319 -13.281113 1.8875074 73
0.38519868 -11.996291 1.705213 188
0.45789105 -11.969958 1.7018372 188
0.58402681 -13.153824 1.8706284 57
0.65392977 -12.936413 1.8402458 49
0.73665679 -12.991465 1.8486855 34
0.70902503 -11.27925 1.6056262 198
0.77821988 -11.274688 1.6056262 132
0.90528816 -12.039772 1.7153405 122
0.98203629 -12.069515 1.7204043 190
1.0612556 -12.122439 1.7288437 77
4.0427094 -43.130943 6.1545486 20
4.3001924 -43.034393 6.1444216 25
1.2365657 -11.651906 1.6647031 149
1.3093634 -11.655905 1.666391 193
1.3724658 -11.576863 1.6562636 34
5.2432137 -42.019917 6.0161405 11
5.440753 -41.527531 5.9503112 43
5.6550684 -41.199108 5.9081135 14
5.8689351 -40.89315 5.8692918 69
6.0933414 -40.680122 5.8439727 151
6.3080268 -40.418934 5.8119025 135
6.5482988 -40.332565 5.8051515 27
6.9669814 -39.816162 5.7426987 40
7.6036472 -39.191322 5.6718059 23
7.8112969 -38.980843 5.6481752 14
7.9661293 -38.524967 5.589098 14
8.1577759 -38.266209 5.5587158 50
8.3592911 -38.064583 5.5367732 16
8.5376825 -37.769215 5.5013266 25
8.7100773 -37.461536 5.4641924 146
8.9370117 -37.395832 5.4625049 29
9.1011553 -37.074913 5.4236832 31
9.3110523 -36.949249 5.4135556 48
9.5197506 -36.822407 5.4034281 21
9.7059345 -36.61401 5.3814855 31
9.8992634 -36.439114 5.3646059 18
10.078074 -36.217445 5.3409753 20
10.228497 -35.903553 5.3038411 21
10.455256 -35.86293 5.3072171 21
10.580045 -35.479313 5.2599554 60
10.759429 -35.288719 5.2413883 19
10.905063 -34.995186 5.2076302 20
11.033085 -34.65591 5.16712 138
11.230827 -34.542366 5.1603684 190
11.390165 -34.314945 5.1367378 211
11.615751 -34.289421 5.1434894 97
11.957878 -34.599289 5.2008786 73
12.272642 -34.816593 5.2447643 103
12.630702 -35.143135 5.3055291 81
12.989139 -35.455418 5.3646059 77
13.339414 -35.731224 5.4186192 84
13.718897 -36.070675 5.4827595 80
14.073002 -36.329254 5.5350852 91
14.295649 -36.242222 5.5350852 24
14.477913 -36.054596 5.5198936 24
14.635942 -35.811115 5.496263 69
14.83715 -35.676758 5.4895115 31
14.990969 -35.431866 5.4658809 38
15.222181 -35.371952 5.4709444 31
15.367484 -35.114624 5.4456258 35
15.515035 -34.867706 5.4219947 40
15.709101 -34.728554 5.4152431 35
15.807753 -34.38324 5.3764215 27
15.988252 -34.221012 5.3662939 40
16.187738 -34.1008 5.3629184 31
16.308939 -33.818909 5.3342233 31
16.385487 -33.451466 5.2920256 188
16.643349 -33.456665 5.3089046 77
16.773327 -33.205452 5.285274 28
16.917116 -32.985622 5.2667069 21
17.119194 -32.881199 5.2667069 53
17.248465 -32.638988 5.2447643 11
17.470871 -32.574417 5.2515159 11
17.585222 -32.310078 5.2261972 10
17.915241 -32.440773 5.2650194 10
18.292191 -31.283667 5.1485534 50
18.520159 -31.232157 5.1586809 29
18.693079 -31.087383 5.1536169 18
18.735043 -30.728645 5.1131072 151
18.854523 -30.501945 5.0945401 195
18.978237 -30.285011 5.077661 192
19.182817 -30.198076 5.0827246 135
19.37418 -30.089794 5.0844131 45
19.545456 -29.950449 5.0810366 23
19.689537 -29.770502 5.0709095 33
19.845377 -29.609652 5.064158 33
20.053385 -29.52664 5.0709095 10
20.949673 -28.897612 5.0709095 12
20.941078 -28.152187 4.9848261 64
21.134871 -28.051632 4.9898896 29
21.234522 -27.826975 4.9730105 32
21.361273 -27.639753 4.962883 17
21.464563 -27.423964 4.9476919 204
21.661949 -27.328985 4.9544435 162
22.193636 -27.649546 5.0371509 18
21.950724 -27.005783 4.9443159 28
22.055613 -26.797203 4.9308124 26
22.212019 -26.652243 4.9291248 39
22.352146 -26.488209 4.9240608 24
22.568281 -26.413792 4.9358768 29
22.753246 -26.301773 4.9409404 20
22.820267 -26.054419 4.9206853 20
23.003351 -25.940571 4.9257488 28
23.15415 -25.790096 4.9240608 22
23.279997 -25.612375 4.9173098 28
23.388441 -25.416594 4.9071817 22
23.462973 -25.185677 4.8903027 61
23.665976 -25.093094 4.9004302 40
23.78668 -24.913038 4.8936787 42
23.840014 -24.66411 4.8734241 82
23.8995 -24.423958 4.854857 230
24.032188 -24.259972 4.851481 224
24.189005 -24.120445 4.853169 231
24.370407 -24.004921 4.8599205 76
24.5513 -23.888075 4.866672 48
24.586056 -23.629955 4.8447289 37
24.87706 -23.617714 4.8734241 55
24.995506 -23.440245 4.8683596 32
25.138863 -23.286432 4.8683596 39
25.290039 -23.139767 4.8700476 34
25.484434 -23.031952 4.8801756 32
25.598684 -22.851412 4.8751116 27
25.774061 -22.72534 4.8818631 42
25.787584 -22.457531 4.8582325 39
25.960924 -22.329868 4.864984 45
25.997849 -22.085543 4.846417 48
26.151075 -21.94088 4.8497925 81
26.294359 -21.787586 4.851481 46
26.455133 -21.648409 4.8565445 42
26.550505 -21.455807 4.8497925 48
26.598082 -21.225798 4.8346019 233
26.877125 -21.179852 4.8616085 94
26.978445 -20.992647 4.8565445 41
27.182114 -20.884624 4.8700476 40
27.158302 -20.602556 4.8430409 45
27.49341 -20.59222 4.8801756 33
27.514166 -20.345434 4.8616085 33
27.753633 -20.260286 4.8818631 31
27.925619 -20.124342 4.8903027 41
27.961443 -19.890633 4.8751116 35
28.073242 -19.711864 4.8734241 42
28.281546 -19.600145 4.8886147 36
28.342442 -19.386002 4.8784876 38
28.54948 -19.271553 4.8936787 33
28.558426 -19.023561 4.8751116 65
28.793753 -18.926281 4.8953667 35
28.929277 -18.76218 4.8987427 45
28.953787 -18.52669 4.8835511 75
29.016685 -18.316973 4.8751116 240
29.118448 -18.132307 4.8734241 214
29.269651 -17.97817 4.8801756 206
29.460703 -17.847483 4.8936787 129
29.692047 -17.7395 4.9139333 31
29.728683 -17.514765 4.9021182 30
29.897228 -17.36783 4.9122453 64
30.116638 -17.249008 4.9308124 30
30.294327 -17.10478 4.9426279 24
30.346806 -16.889688 4.9341884 47
30.460285 -16.708879 4.9358768 89
30.572685 -16.527313 4.9375644 115
30.799349 -16.406441 4.9578195 160
30.888916 -16.211628 4.956131 144
31.11445 -16.087271 4.9763861 113
31.180815 -15.879879 4.9713225 78
31.362623 -15.730871 4.9848261 46
31.522467 -15.569706 4.9949532 22
31.638775 -15.386385 4.9983287 17
31.668293 -15.161182 4.9882016 116
31.728483 -14.951391 4.9831381 165
32.056744 -14.866392 5.0202723 29
32.255444 -14.718737 5.0371509 27
32.269279 -14.486484 5.0253358 32
32.651005 -14.417788 5.0709095 25
32.749752 -14.221906 5.0725975 24
32.934738 -14.062677 5.0877886 19
32.987541 -13.846535 5.0827246 30
33.247604 -13.716362 5.1097317 22
33.154976 -13.440683 5.0827246 14
33.391346 -13.298537 5.1063557 22
33.616154 -13.149667 5.1282988 15
33.651844 -12.926114 5.1215467 76
33.852806 -12.765498 5.1401138 17
33.997345 -12.582282 5.1502414 23
34.185581 -12.413994 5.16712 49
33.981312 -12.104336 5.1249223 113
34.077377 -11.90344 5.1282988 144
34.161011 -11.697968 5.1299863 131
34.378571 -11.53728 5.1519294 127
34.493862 -11.340962 5.1586809 153
34.675884 -11.165513 5.17556 154
34.823059 -10.977539 5.1873751 149
34.935173 -10.777672 5.1941271 152
35.091637 -10.590571 5.2076302 148
35.235725 -10.398594 5.2194457 136
39.613834 -11.426878 5.8574762 38
39.969086 -11.264164 5.8996739 17
39.991631 -11.006097 5.8929224 31
36.124241 -9.4664469 5.3055291 116
36.216179 -9.253437 5.3105927 113
36.39909 -9.0626192 5.3291597 115
36.546383 -8.8615055 5.3426633 128
36.727261 -8.6671104 5.3612304 114
36.895546 -8.4681702 5.378109 110
37.062771 -8.2674904 5.3949885 135
37.159248 -8.049984 5.4017406 125
37.347458 -7.8511562 5.4219947 131
37.56955 -7.6574397 5.4473138 121
37.837284 -7.4704976 5.4793839 108
38.022446 -7.2649484 5.499639 91
38.323338 -7.0789876 5.5367732 66
38.985939 -6.9542823 5.6262321 29
43.079071 -7.4119663 6.2102499 97
43.369881 -7.1882944 6.2456961 120
43.553955 -6.9444947 6.2659507 89
43.654469 -6.6861153 6.2743907 75
43.97678 -6.4595685 6.3149004 103
44.074413 -6.1978827 6.3233399 109
44.335335 -5.9573927 6.3554106 93
44.52425 -5.7048726 6.3773532 103
44.699936 -5.4488206 6.3976083 104
45.015778 -5.2072096 6.4381185 104
45.188602 -4.9464126 6.4583726 105
45.45446 -4.6934528 6.4921312 70
45.600655 -4.4259386 6.5090103 83
45.804432 -4.1621823 6.5343289 102
46.113232 -3.9051142 6.5748391 83
46.254765 -3.6313937 6.5917182 84
46.50132 -3.3637981 6.6237884 95
46.663342 -3.0878212 6.644043 80
46.847443 -2.8114064 6.6676741 111
47.065491 -2.5347645 6.6963687 109
47.412437 -2.2617795 6.7436299 88
47.698444 -1.9821655 6.7824521 94
47.970921 -1.6987058 6.8195858 35
47.861683 -1.400854 6.8027072 44
47.382401 -1.0958906 6.7335024 73
47.115013 -0.80049509 6.6946807 72
46.762638 -0.50751966 6.644043 64
46.360935 -0.21867467 6.5866547 47
46.028744 0.065322697 6.5393925 59
45.730469 0.34550455 6.4971948 87
45.394859 0.62154067 6.4499335 85
44.986328 0.89205813 6.3925443 70
44.74247 1.1619037 6.3587861 72
44.36639 1.4245965 6.3064609 68
44.166859 1.6895305 6.2794542 78
43.82333 1.9457461 6.232193 96
43.513931 2.1996093 6.1899953 93
43.32169 2.4564755 6.1646767 66
42.926365 2.6983945 6.1106629 52
42.636395 2.9429188 6.0718412 82
42.356895 3.1848774 6.0347071 64
42.016834 3.4187002 5.9891334 59
41.746521 3.6546876 5.9536877 78
41.486732 3.8885958 5.919929 96
41.202011 4.1170921 5.8827949 106
40.880615 4.3384805 5.8405972 99
40.628902 4.5640383 5.808527 105
40.387768 4.7880702 5.7781444 85
40.157215 5.010787 5.7494502 104
39.90189 5.2277684 5.7173796 117
39.586571 5.4337282 5.6768699 108
39.352566 5.6478324 5.6481752 105
39.140926 5.8627896 5.6228566 115
38.834225 6.0607076 5.5840344 112
38.632126 6.2722197 5.5604038 65
38.323463 6.4636979 5.5215816 88
38.142647 6.6741514 5.5013266 136
37.878868 6.867794 5.4692569 117
37.602474 7.0562606 5.4354982 121
37.465164 7.2687497 5.4219947 128
37.186878 7.451808 5.388237 127
36.87286 7.6245093 5.3494148 110
36.674324 7.8184104 5.3274717 95
36.370369 7.9872284 5.2903376 113
36.239559 8.191906 5.2785225 135
36.072891 8.387208 5.2616434 130
35.858978 8.5697279 5.2380128 153
35.621109 8.7442751 5.2110062 137
35.393974 8.9191303 5.1856871 159
35.166046 9.0915289 5.1603684 137
34.994759 9.2766905 5.1434894 127
34.719341 9.4320602 5.1114192 86
34.569244 9.6194363 5.0979156 79
34.372459 9.7923069 5.077661 99
34.095016 9.9398489 5.0455909 109
33.965076 10.128495 5.0354633 117
33.743187 10.2882 5.0118322 125
33.554653 10.456171 4.9932652 131
33.342697 10.615008 4.9713225 144
33.152653 10.778987 4.9527555 126
32.984406 10.94852 4.9375644 136
32.736568 11.089712 4.9105577 141
32.555614 11.251562 4.8936787 133
32.38512 11.415562 4.8784876 111
32.180298 11.565837 4.8582325 53
31.986013 11.718119 4.8396654 102
31.802208 11.872608 4.8227863 158
31.617712 12.025284 4.8059068 143
31.465782 12.189019 4.7940917 152
31.290934 12.342627 4.7789006 152
31.115383 12.494546 4.7637091 163
30.895164 12.626801 4.7417665 148
30.762257 12.793322 4.7333269 157
30.519054 12.912394 4.7080083 147
30.297382 13.03836 4.6860657 137
30.19504 13.214488 4.6826897 146
30.037407 13.365703 4.6708741 115
29.889883 13.520379 4.6607471 112
29.730801 13.668786 4.6489315 76
29.59255 13.825809 4.640492 61
29.539356 14.022408 4.6455555 53
29.324348 14.141468 4.6253009 104
29.215685 14.310679 4.6219249 117
29.106052 14.479092 4.6185493 164
28.931826 14.614556 4.6050458 154
28.831036 14.786382 4.6033578 149
28.592234 14.886197 4.5797272 148
28.542374 15.083559 4.5864787 63
28.396935 15.23033 4.5780392 66
28.28208 15.392926 4.5746636 64
28.103895 15.520224 4.5611601 59
27.90449 15.634303 4.544281 57
27.777044 15.787614 4.539217 59
27.587017 15.904349 4.5240259 65
27.417118 16.031342 4.5122108 85
27.318235 16.199268 4.5122108 66
27.106327 16.29924 4.4936438 65
26.873934 16.384853 4.4717007 64
26.287811 16.249592 4.3906808 97
25.845322 16.196087 4.333292 100
25.685287 16.316143 4.3231645 204
25.624647 16.499166 4.329916 116
25.373684 16.558691 4.3045974 20
24.805861 16.406036 4.2252655 91
24.665251 16.531475 4.218514 12
23.963825 16.275331 4.115551 49
23.62862 16.26042 4.0750413 81
23.197052 16.174063 4.0176525 83
22.922707 16.192707 3.9872701 48
22.339842 15.987343 3.9028745 268
22.222086 16.11017 3.8994985 138
21.960028 16.126671 3.8708038 35
21.479359 15.977477 3.8032875 77
21.409384 16.130419 3.8083513 17
21.092775 16.095713 3.7695293 19
20.890211 16.144917 3.7509623 26
20.538149 16.075079 3.7053885 25
22.152281 17.558704 4.0159645 11
19.792694 15.887127 3.6058021 78
19.501232 15.850906 3.5703557 37
19.064198 15.690913 3.5079029 173
18.7759 15.647862 3.4724567 270
18.570576 15.670831 3.4522018 311
18.437941 15.753612 3.4454501 190
18.206154 15.749855 3.4201314 50
17.894676 15.6734 3.3796215 39
17.647057 15.648901 3.3509271 129
17.550705 15.756886 3.3509271 49
17.321815 15.744413 3.3256085 40
17.058777 15.697548 3.2935381 51
16.814356 15.664251 3.2648435 55
16.683353 15.734522 3.2580922 70
16.457602 15.713527 3.2327733 46
16.036263 15.500446 3.1686325 126
15.906886 15.565315 3.1618812 37
15.65071 15.503761 3.1298108 37
15.320395 15.36394 3.0825491 160
15.109114 15.339158 3.0589185 338
15.056135 15.474153 3.067358 159
14.88681 15.489152 3.0521667 37
14.717871 15.502658 3.0369756 40
14.468058 15.428015 3.0049052 77
14.235868 15.368328 2.9762106 97
14.029022 15.332675 2.95258 41
13.719595 15.180481 2.9070065 154
13.341364 14.945306 2.8462415 305
13.155123 14.91995 2.8259866 360
12.969697 14.892873 2.8057315 374
12.800599 14.882102 2.7888525 400
12.632123 14.869819 2.7719734 408
12.471919 14.865134 2.7567821 354
12.312252 14.859047 2.741591 274
12.175702 14.879146 2.7314634 256
12.024438 14.87965 2.7179604 285
11.873626 14.87886 2.7044568 290
11.708572 14.85812 2.6875777 324
11.551519 14.845294 2.6723864 322
11.402307 14.840527 2.6588833 319
11.217686 14.787161 2.6369405 292
11.076886 14.789147 2.6251249 334
10.943551 14.79952 2.6149976 346
10.775482 14.760836 2.5964305 342
10.649978 14.778481 2.5879908 320
10.490231 14.746739 2.5711119 313
10.344931 14.733043 2.5576084 340
10.200197 14.718122 2.5441053 344
10.076159 14.7314 2.5356655 345
9.9124613 14.68463 2.5170987 340
9.7826519 14.685848 2.5069711 352
9.640152 14.666174 2.4934678 411
9.5047274 14.655274 2.4816525 359
9.3698006 14.643265 2.469837 344
9.2290411 14.620111 2.4563339 369
9.1140394 14.636123 2.4495821 346
8.9556627 14.580411 2.4310153 383
8.810627 14.543634 2.4158239 376
8.7090359 14.577024 2.4124482 300
8.5711832 14.548296 2.3989446 271
8.4519167 14.549249 2.3905053 326
8.3211527 14.528669 2.37869 309
8.2084837 14.538071 2.3719382 306
8.0729036 14.505114 2.3584349 386
7.9494672 14.491878 2.3483076 356
7.8264976 14.477673 2.3381801 372
7.7151742 14.483479 2.3314283 341
7.5709476 14.425347 2.3145492 247
7.4604673 14.429317 2.3077977 224
7.3340478 14.400713 2.2959821 271
7.2348962 14.424205 2.2926066 356
7.1725612 14.521586 2.3010459 300
7.0521479 14.501217 2.2909184 376
6.937386 14.490636 2.282479 362
6.8432779 14.522182 2.2807908 337
6.7190542 14.488452 2.2689755 189
6.5905709 14.442938 2.2554722 86
6.4823637 14.439751 2.2487206 50
7.6126208 17.239796 2.6774504 44
7.6108079 17.525927 2.7145844 44
7.5544467 17.692486 2.7331514 46
7.5561042 18.001421 2.7736614 51
7.5451884 18.289066 2.8107953 52
7.481925 18.456131 2.8293624 43
7.5048108 18.843857 2.8816876 54
7.4539666 19.055515 2.9070065 45
7.434885 19.355978 2.9458282 54
7.4082017 19.645798 2.9829624 54
7.320507 19.780022 2.9964657 51
7.1990013 19.824566 2.9964657 51
5.0918941 14.294814 2.1558855 390
4.9688263 14.224844 2.1406944 381
4.8737526 14.232584 2.1373184 454
4.7749915 14.228431 2.1322546 471
4.6764655 14.223603 2.1271911 486
4.5854616 14.240721 2.1255031 479
4.4765639 14.200602 2.1153755 469
4.3788395 14.193744 2.1103117 467
4.27107 14.152102 2.1001844 469
4.1807909 14.166647 2.0984964 447
4.083909 14.157786 2.0934327 460
3.9872937 14.148273 2.0883691 430
3.8877964 14.126654 2.0816174 448
3.7917972 14.11582 2.0765536 475
3.7081244 14.150313 2.0782416 448
3.6065247 14.115246 2.069802 487
3.5198472 14.137109 2.069802 487
3.4246383 14.123801 2.0647383 504
3.3297257 14.109859 2.0596745 484
3.2297981 14.072127 2.051235 473
3.1433923 14.09168 2.051235 441
3.0518372 14.08748 2.0478592 421
2.9604523 14.082686 2.0444834 419
2.862123 14.042379 2.0360436 415
2.7759068 14.059676 2.0360436 394
2.6828971 14.041436 2.0309801 404
2.5966899 14.057634 2.0309801 419
2.4999533 14.014822 2.0225403 408
2.417942 14.053314 2.0259163 381
2.3238962 14.021003 2.0191646 298
2.2265971 13.964603 2.0090373 294
2.135474 13.942771 2.0039735 147
2.0464294 13.932102 2.0005975 372
1.9642138 13.967927 2.0039735 384
1.8721424 13.932616 1.9972217 415
1.7866184 13.943841 1.9972217 422
1.7024645 13.966335 1.9989096 448
1.6112759 13.929311 1.9921581 431
1.5257769 13.938935 1.9921581 412
1.4377799 13.924398 1.9887823 401
1.3500189 13.909308 1.9854064 429
1.2635725 13.905498 1.9837185 391
1.1742159 13.865636 1.9769667 438
1.0891159 13.87258 1.9769667 411
1.0065464 13.914551 1.9820305 459
0.91801155 13.873045 1.9752789 404
0.83215916 13.866558 1.9735911 420
0.74769878 13.883266 1.9752789 383
0.65966803 13.828257 1.9668393 410
0.57579362 13.855785 1.9702152 434
0.49076527 13.859057 1.9702152 464
0.40502328 13.838057 1.9668393 432
0.3192828 13.804648 1.9617755 421
0.2355822 13.865743 1.9702152 479
0.14998344 13.819407 1.9634635 474
0.065186314 13.820067 1.9634635 461
-0.019579526 13.796446 1.9600877 500
-0.10405304 13.772305 1.9567118 462
-0.18855636 13.771407 1.9567118 403
-0.2732881 13.781869 1.9583998 412
-0.35753849 13.768056 1.9567118 460
-0.44201097 13.765603 1.9567118 474
-0.52601272 13.750761 1.955024 460
-0.61090285 13.759143 1.9567118 429
-0.69411629 13.731405 1.9533361 429
-0.78172046 13.786195 1.9617755 457
-0.86331487 13.73371 1.955024 426
-0.94511271 13.692596 1.9499602 451
-1.0317836 13.722082 1.955024 439
-1.1149977 13.703651 1.9533361 457
-1.1980246 13.684716 1.9516482 443
-1.2841874 13.700766 1.955024 422
-1.3694108 13.704449 1.9567118 451
-1.4522202 13.683975 1.955024 495
-1.5335037 13.651194 1.9516482 439
-1.6200343 13.665124 1.955024 410
-1.7067934 13.678504 1.9583998 465
-1.7922344 13.679554 1.9600877 464
-1.8793681 13.69184 1.9634635 455
-1.9549053 13.62125 1.955024 437
-2.0437267 13.644247 1.9600877 430
-2.1274076 13.63145 1.9600877 434
-2.2052968 13.582959 1.955024 409
-2.2925503 13.592602 1.9583998 390
-2.3759098 13.578279 1.9583998 398
-2.4655385 13.598516 1.9634635 437
-2.5489311 13.583132 1.9634635 342
-2.6322277 13.567236 1.9634635 379
-2.7107563 13.527531 1.9600877 367
-2.8033319 13.557182 1.9668393 360
-2.8864644 13.539726 1.9668393 371
-2.9771333 13.556573 1.9719031 340
-3.0576394 13.526462 1.9702152 330
-3.1432693 13.519018 1.9719031 320
-3.2289228 13.511032 1.9735911 342
-3.320261 13.525579 1.9786547 353
-3.4002869 13.493431 1.9769667 286
-3.483017 13.472314 1.9769667 289
-3.5686603 13.462173 1.9786547 267
-3.6511953 13.440022 1.9786547 271
-3.7431481 13.451704 1.9837185 293
-3.8418915 13.485614 1.9921581 294
-3.901289 13.381945 1.9803426 293
-4.0070915 13.437452 1.9921581 336
-4.0929317 13.423977 1.9938461 287
-4.1716881 13.387267 1.9921581 302
-4.2645645 13.39538 1.9972217 299
-4.357697 13.402857 2.0022855 288
-4.4435964 13.387142 2.0039735 306
-4.5256548 13.359625 2.0039735 323
-4.6269469 13.38775 2.012413 303
-4.6971564 13.325492 2.0073493 308
-4.7949047 13.341142 2.0141008 299
-4.8930221 13.356092 2.0208526 307
-4.9748812 13.325818 2.0208526 317
-5.0607767 13.306147 2.0225403 307
-5.1552014 13.308079 2.0276041 317
-5.2585578 13.331456 2.0360436 325
-5.3446865 13.309965 2.0377316 366
-5.4307489 13.287917 2.0394197 351
-5.5304284 13.298224 2.0461712 384
-5.6304379 13.307806 2.0529227 391
-5.7166834 13.283921 2.0546107 370
-5.807611 13.270363 2.0579865 406
-5.9034171 13.267042 2.0630503 389
-5.9798145 13.219745 2.0613625 368
-6.0955563 13.258366 2.0731778 400
-6.186851 13.242242 2.0765536 363
-6.2781773 13.225497 2.0799294 345
-6.3850126 13.240232 2.0883691 399
-6.460907 13.190136 2.0866811 378
-6.5628843 13.192793 2.0934327 382
-6.659781 13.18409 2.0984964 386
-6.7622385 13.185264 2.1052482 384
-6.8430142 13.143523 2.1052482 361
-6.9623899 13.174816 2.1170635 385
-7.0543289 13.152788 2.1204393 381
-7.1519389 13.140562 2.1255031 397
-7.2496629 13.127631 2.1305668 387
-7.3533049 13.12436 2.1373184 380
-7.4630494 13.130639 2.1457582 357
-7.5612783 13.115477 2.1508217 384
-7.6476083 13.079091 2.1525097 378
-7.7458954 13.062577 2.1575735 352
-7.8626347 13.075894 2.167701 375
-7.9550877 13.047691 2.1710765 375
-8.0787249 13.069375 2.1828921 351
-8.1650743 13.029627 2.1845801 336
-8.2958317 13.059508 2.1980834 366
-8.3886709 13.028338 2.2014592 333
-8.5009174 13.026369 2.2098987 360
-8.6069021 13.013601 2.2166502 346
-8.713048 13.000022 2.223402 327
-8.8193502 12.985627 2.2301536 346
-8.932539 12.980205 2.2385931 339
-9.0324011 12.954388 2.2436569 336
-9.1597004 12.966648 2.2554722 340
-9.2529182 12.929523 2.258848 319
-9.3878651 12.949457 2.2723515 315
-9.4882412 12.920338 2.277415 320
-9.5957041 12.900007 2.2841668 334
-9.724721 12.907308 2.2959821 294
-9.854188 12.91351 2.3077977 342
-9.9550323 12.881004 2.3128612 312
-10.070495 12.866457 2.3213007 308
-10.193532 12.860288 2.3314283 301
-10.301997 12.83456 2.3381801 272
-10.440503 12.84486 2.3516831 299
-10.579522 12.853943 2.3651865 274
-10.681012 12.816167 2.3702505 246
-10.813085 12.813948 2.3820658 276
-10.953246 12.819618 2.3955688 312
-11.070565 12.797096 2.4040086 266
-11.180188 12.764675 2.4107602 266
-11.313479 12.75806 2.4225757 310
-11.43917 12.741444 2.432703 285
-11.573072 12.732557 2.4445186 290
-11.731428 12.748731 2.4613974 317
-11.833728 12.702587 2.4664614 259
-11.968508 12.69024 2.4782767 278
-12.111783 12.685306 2.4917798 269
-12.263703 12.687633 2.5069711 268
-12.366251 12.63762 2.5120349 263
-12.535534 12.654349 2.530602 267
-12.655007 12.61914 2.5390415 258
-12.816841 12.624624 2.5559206 265
-12.953669 12.60374 2.5677359 236
-13.099287 12.589883 2.5812395 253
-13.219371 12.55017 2.589679 253
-13.434788 12.598852 2.6166854 238
-13.520556 12.524255 2.6183734 243
-13.711098 12.545319 2.6403162 239
-13.849517 12.516716 2.6521316 208
-14.005824 12.502707 2.6673229 218
-14.162478 12.487249 2.682514 242
-14.337386 12.485943 2.701081 229
-14.476779 12.451966 2.7128963 224
-14.670619 12.4629 2.7348392 238
-14.819627 12.433739 2.7483428 223
-15.014567 12.441116 2.7702856 229
-15.136595 12.386374 2.7787249 220
-15.35092 12.405276 2.8040438 197
-15.501037 12.370135 2.8175468 229
-15.669963 12.348325 2.8344262 237
-15.857953 12.339496 2.854681 222
-16.055841 12.336061 2.8766239 230
-16.244816 12.323478 2.896879 223
-16.3962 12.280548 2.9103823 194
-16.60498 12.278604 2.9340129 152
-16.833542 12.288567 2.9610195 132
-16.985735 12.240615 2.9745228 142
-17.157333 12.205029 2.9914017 187
-17.368025 12.195106 3.0150328 172
-17.579233 12.183051 3.0386634 183
-17.771332 12.155447 3.0589185 170
-17.963747 12.125939 3.0791733 150
-18.205904 12.12746 3.1078677 162
-18.448751 12.126459 3.1365623 160
-18.632458 12.084144 3.1551294 184
-18.836349 12.052834 3.1770723 181
-19.110878 12.063868 3.2108305 199
-19.315649 12.02802 3.2327733 166
-19.510569 11.983891 3.2530282 186
-19.776802 11.980914 3.2850986 185
-20.053925 11.981209 3.3188567 187
-20.249897 11.930303 3.3391116 163
-20.517908 11.919216 3.371182 170
-20.796846 11.911189 3.4049401 149
-21.03507 11.87682 3.431947 143
-21.263266 11.834192 3.4572654 163
-21.554224 11.823493 3.4927118 148
-21.835392 11.804013 3.5264699 133
-22.10664 11.775939 3.5585403 151
-22.420435 11.767061 3.5973623 161
-22.692732 11.732945 3.6294327 145
-22.976032 11.701318 3.6631908 120
-23.227934 11.650672 3.6918855 107
-23.373549 11.544759 3.7037008 172
-23.743105 11.546609 3.7509623 191
-24.113554 11.544354 3.798224 108
-24.527845 11.55824 3.852237 104
-25.967121 12.042315 4.0666018 90
-26.289122 11.996196 4.1054239 89
-26.633198 11.956306 4.1476216 83
-26.858213 11.85985 4.1712523 34
-79.485664 20.309034 11.655454 38
-79.412796 19.772141 11.62676 11
-79.301697 19.228508 11.593001 34
-79.207458 18.179489 11.545739 30
-79.387093 17.70866 11.555867 11
-23.771351 5.1497002 3.4555776 103
-23.628103 4.967083 3.430259 271
-23.506798 4.7911644 3.4083161 381
-23.454163 4.6307306 3.3965008 376
-23.470465 4.4845014 3.3948128 417
-23.462492 4.333931 3.3897491 360
-23.395073 4.1731954 3.3762457 392
-23.420238 4.0295672 3.3762457 407
-23.39764 3.8780172 3.3694942 418
-23.385798 3.7287667 3.3644304 388
-23.361261 3.5780091 3.3576787 399
-23.335758 3.4276938 3.3509271 406
-23.332821 3.2811348 3.3475513 395
-23.317188 3.1331587 3.3424876 392
-23.288839 2.9839888 3.335736 415
-23.294914 2.8395972 3.334048 414
-23.300098 2.6952438 3.3323603 403
-23.280766 2.5483479 3.3272963 387
-23.272329 2.4030113 3.3239205 392
-23.262985 2.2578743 3.3205447 394
-23.217241 2.1097171 3.3121052 407
-23.206072 1.9652139 3.3087292 400
-23.22954 1.8237171 3.3104174 402
-23.181042 1.676863 3.3019776 422
-23.167185 1.5330263 3.2986016 407
-23.140577 1.3887112 3.2935381 414
-23.148663 1.2466971 3.2935381 377
-23.144011 1.1040701 3.2918503 412
-23.150351 0.96204031 3.2918503 397
-23.167688 0.82039469 3.2935381 415
-23.136662 0.67718226 3.2884746 420
-23.128502 0.53493088 3.2867863 424
-23.095713 0.39240155 3.2817228 434
-23.026405 0.24990791 3.2715952 407
-23.063148 0.10878396 3.276659 463
-23.069778 -0.021717595 3.0535817 414
-23.057314 -0.16318649 3.052007 390
-23.067776 -0.30481765 3.0535817 385
-23.029787 -0.44566259 3.0488577 408
-23.002834 -0.58635598 3.0457084 391
-23.022585 -0.72823995 3.0488577 404
-22.970131 -0.8676939 3.0425591 397
-22.95249 -1.0080976 3.0409846 380
-22.993399 -1.1512922 3.0472832 429
-22.962147 -1.2910198 3.0441339 398
-22.918175 -1.4296666 3.0394101 390
-22.932705 -1.5718899 3.0425591 404
-22.910767 -1.7116864 3.0409846 385
-22.899832 -1.852232 3.0409846 389
-22.888037 -1.9927078 3.0409846 374
-22.875378 -2.1331086 3.0409846 374
-22.897371 -2.2769606 3.0457084 421
-22.847479 -2.4136641 3.0409846 398
-22.832239 -2.5538082 3.0409846 382
-22.827953 -2.695251 3.0425591 380
-22.822792 -2.8367374 3.0441339 395
-22.804956 -2.976722 3.0441339 382
-22.786263 -3.1165946 3.0441339 357
-22.790264 -3.2597184 3.0472832 404
-22.769833 -3.3994956 3.0472832 388
-22.7603 -3.5409734 3.0488577 416
-22.726402 -3.6786604 3.0472832 360
-22.726866 -3.8219836 3.0504324 398
-22.726425 -3.9654508 3.0535817 360
-22.713371 -4.1069393 3.0551562 366
-22.67605 -4.2440405 3.0535817 385
-22.649584 -4.3830981 3.0535817 397
-22.657259 -4.528986 3.0583055 405
-22.629042 -4.6679235 3.0583055 370
-22.646519 -4.8165836 3.064604 383
-22.663021 -4.9656343 3.0709026 386
-22.597311 -5.096746 3.0661786 390
-22.611967 -5.2460589 3.0724771 388
-22.590923 -5.3874645 3.0740519 377
-22.545887 -5.5231476 3.0724771 359
-22.569258 -5.6758895 3.0803502 378
-22.534006 -5.8142648 3.0803502 356
-22.520906 -5.9585071 3.0834994 382
-22.506886 -6.102807 3.0866487 354
-22.503405 -6.2503433 3.0913727 343
-22.498957 -6.3980656 3.0960965 349
-22.447851 -6.5326719 3.0945218 353
-22.452953 -6.6838627 3.1008201 384
-22.422899 -6.8249702 3.1023948 324
-22.426039 -6.9765611 3.1086934 337
-22.416821 -7.1248431 3.1134171 367
-22.417942 -7.276948 3.1197157 327
-22.508375 -7.4592719 3.1386111 244
-22.608681 -7.6467896 3.1590812 53
-26.527937 -20.481773 4.4360981 18
-26.486105 -20.710108 4.4502692 18
-25.564783 -20.75918 4.3589416 16
-28.037359 -23.053871 4.8045588 13
-28.050795 -23.354872 4.8313274 10
-26.260698 -22.138689 4.5463214 26
-25.382412 -21.666084 4.4172025 16
-26.698092 -23.073803 4.6707163 13
-24.935568 -21.819256 4.3857098 16
-25.335489 -22.445166 4.4801874 21
-25.569241 -22.933813 4.5463214 18
-23.129408 -21.002968 4.1353455 26
-23.341656 -21.45849 4.1967559 17
-24.898941 -23.173637 4.5022321 25
-25.578819 -24.100994 4.6518207 20
-23.30426 -22.229362 4.2628899 10
-23.107521 -22.314089 4.2518673 22
-23.097769 -22.580194 4.2754865 11
-23.499937 -23.257055 4.3762622 12
-23.239138 -23.282932 4.354218 15
-22.152042 -22.467836 4.1762857 22
-24.462275 -25.11742 4.6407986 11
-23.672632 -24.606918 4.5195527 37
-23.381891 -24.605108 4.4927845 29
-24.956528 -26.586927 4.8266034 12
-25.439995 -27.437433 4.9525728 12
-22.700056 -24.785681 4.4486947 22
-24.34321 -26.90946 4.8029842 16
-23.503891 -26.304298 4.6691413 20
-22.484016 -25.475815 4.497508 20
-22.733761 -26.079603 4.5793886 15
-22.309408 -25.912085 4.5258512 12
-22.234764 -26.148174 4.5431719 24
-22.464085 -26.748713 4.6234775 23
-20.30201 -26.065176 4.3731132 18
-36.807533 -54.471687 8.7017431 39
-36.268009 -54.389683 8.6529293 44
-35.770126 -54.362751 8.6135645 32
-35.235073 -54.271896 8.5647516 32
-34.747402 -54.246655 8.5269604 44
-34.210541 -54.137032 8.476573 43
-33.808491 -54.234875 8.4592514 44
-33.194675 -53.985275 8.3883934 35
-32.733257 -53.974331 8.3553267 32
-32.285442 -53.980179 8.3254089 40
-31.856922 -54.013317 8.3002157 37
-31.429214 -54.043232 8.2750216 38
-30.913582 -53.915134 8.2262077 43
-30.488522 -53.938103 8.2010145 42
-29.879059 -53.625343 8.125433 35
-29.492193 -53.703396 8.1096859 32
-29.11116 -53.789185 8.0955143 54
-28.618227 -53.662388 8.0498505 53
-28.199886 -53.66848 8.0246563 50
-27.809895 -53.724289 8.0073357 40
-27.312206 -53.565372 7.9585223 39
-26.983023 -53.731949 7.9585223 38
-26.578995 -53.747211 7.9364777 30
-26.02998 -53.460068 7.8703442 41
-25.8403 -53.908417 7.9128585 68
-25.397362 -53.829262 7.8782167 75
-23.707882 -53.620319 7.7601209 11
-23.349964 -53.699318 7.7506728 13
-22.725399 -53.152466 7.6514721 46
-22.343519 -53.159302 7.6325765 39
-22.089592 -53.471313 7.6577702 35
-21.68054 -53.40744 7.629427 53
-21.317175 -53.451065 7.6168299 18
-20.96277 -53.514397 7.6073823 12
-20.587038 -53.519882 7.5900617 19
-20.136379 -53.322449 7.5443978 14
-19.730267 -53.233059 7.5144796 51
-19.354473 -53.21896 7.495584 60
-18.859682 -52.866127 7.4294505 52
-17.890974 -53.226864 7.4325995 17
-17.09404 -53.000851 7.3711896 10
-16.747019 -53.036678 7.361742 11
-16.421276 -53.138439 7.361742 34
-15.504884 -52.446114 7.2389216 65
-15.192696 -52.574547 7.2436452 42
-14.940931 -52.918652 7.2782869 31
-14.622271 -53.032265 7.281436 18
-14.225489 -52.856777 7.2452202 27
-13.873707 -52.839512 7.2310481 18
-13.510873 -52.773827 7.2105784 20
-13.169526 -52.786476 7.2011304 27
-12.777975 -52.588856 7.1633396 31
-12.471482 -52.735729 7.1727872 40
-12.062332 -52.440269 7.1223998 40
-11.670258 -52.199833 7.0798845 65
-11.324503 -52.154205 7.0641384 47
-10.984654 -52.129585 7.0515413 58
-10.640773 -52.079449 7.0357957 80
-10.325638 -52.167099 7.0389447 66
-9.9963989 -52.182735 7.0326462 59
-9.6630249 -52.172909 7.0231986 23
-10.697963 -59.807835 8.0419779 14
-9.4549284 -54.796288 7.360167 11
-8.6620398 -52.107227 6.9917059 38
-8.310214 -51.959702 6.9649377 102
-8.0056915 -52.103779 6.9775348 103
-7.7205272 -52.387302 7.0090265 22
-7.6432853 -54.165279 7.2404957 11
-7.4904494 -55.543377 7.4184279 14
-7.3103595 -56.838989 7.5853376 46
-7.2100234 -58.913776 7.8561721 14
-6.8333006 -58.826923 7.8388515 26
-6.8752475 -62.533489 8.3269835 9
-1.1632631 -11.925892 1.586036 34
-1.0370166 -12.176335 1.6175283 40
-0.96041095 -12.158751 1.614379 27
-0.86505282 -11.879659 1.5765882 21
-0.82695514 -12.407019 1.6458714 11
-0.76948756 -12.720597 1.6868116 16
-2.778754 -51.140862 6.7791324 40
-2.4317002 -50.467766 6.6878047 53
-2.1199915 -50.434193 6.6815062 38
-0.35239458 -11.846392 1.5687151 44
-1.1587366 -49.085094 6.4988503 38
-0.85774201 -49.103172 6.5004244 62
-0.55872583 -49.309734 6.5271935 40
-0.25695983 -49.466885 6.5476632 40
0.011268959 -11.970589 1.5844613 130
0.083708584 -11.827543 1.5655658 146
0.15926594 -12.052815 1.5954835 171
0.23782097 -12.289492 1.626976 95
1.1865809 -46.549744 6.163456 83
0.37958744 -12.000281 1.5891852 178
0.45321265 -11.997726 1.5891852 197
0.55031043 -12.529534 1.6600431 64
0.6432423 -12.846719 1.7025578 45
0.63724583 -11.334089 1.502581 59
0.70529723 -11.30622 1.4994318 183
0.7779116 -11.349153 1.5057303 141
0.90337163 -12.091547 1.6049314 163
0.97562873 -12.06206 1.6017821 178
1.0485899 -12.043996 1.6002074 23
4.0284691 -43.201153 5.7430325 26
1.1562853 -11.627734 1.5466704 39
1.2263601 -11.60859 1.5450958 130
1.3028555 -11.648137 1.5513943 152
5.4141464 -41.478302 5.5367575 34
5.6459808 -41.279289 5.5147123 13
5.8418908 -40.843472 5.4611754 50
6.0660424 -40.630371 5.4375563 135
6.2841415 -40.392551 5.4107876 128
6.526165 -40.318005 5.4060636 27
6.7615914 -40.206814 5.396616 12
6.9468236 -39.812992 5.3493776 26
7.3560815 -39.303791 5.2926912 11
7.955718 -38.567532 5.2123857 12
8.135294 -38.250362 5.1761694 33
8.3698406 -38.199726 5.1761694 19
8.5464888 -37.892345 5.1415277 18
8.7008629 -37.503128 5.0958638 160
8.9280539 -37.437462 5.0942888 26
9.1066475 -37.173992 5.0659461 15
9.2910509 -36.944363 5.0423265 55
9.4967566 -36.806023 5.0313044 17
9.7132874 -36.712559 5.0265803 18
9.8823299 -36.445599 4.9982376 18
10.077116 -36.281113 4.9840655 15
10.221449 -35.943977 4.9462752 18
10.43848 -35.86916 4.9447002 23
10.532791 -35.382572 4.8864393 44
10.73584 -35.271755 4.8801408 17
10.881385 -34.978027 4.8486481 21
11.023734 -34.683857 4.8171558 120
11.214304 -34.547672 4.8077078 184
11.358713 -34.274952 4.7793651 189
11.580241 -34.238419 4.7840891 94
11.922045 -34.549065 4.837626 73
12.260194 -34.834354 4.8880138 71
12.61836 -35.161564 4.9447002 73
12.960563 -35.429813 4.9935131 82
13.310684 -35.706326 5.0439014 49
13.685801 -36.035465 5.1021624 69
14.026823 -36.261475 5.1462517 85
14.288295 -36.274342 5.1604233 32
14.515028 -36.197025 5.1619978 13
14.615481 -35.809902 5.119483 64
16.035418 -37.950989 5.4533024 20
16.573305 -38.562305 5.5556526 14
17.528383 -39.443134 5.7131147 16
18.078629 -40.017838 5.8123159 10
18.497578 -40.284546 5.8674278 26
15.962616 -34.208752 4.9966626 28
16.146734 -34.056416 4.9887896 28
16.283125 -33.806652 4.9667449 30
16.411833 -33.545815 4.9431257 210
16.633236 -33.47644 4.9478493 46
16.822256 -33.341888 4.9431257 16
16.972284 -33.132164 4.9273796 18
17.08744 -32.858528 4.9021854 53
17.416462 -32.995037 4.9384017 10
17.461292 -32.593937 4.8943124 9
17.638227 -32.444374 4.8880138 10
18.355156 -31.4258 4.8171558 51
18.553699 -31.322821 4.8187308 13
18.690413 -31.116604 4.8045588 18
18.676786 -30.666048 4.7525964 107
18.858349 -30.540751 4.7510219 196
18.988579 -30.333714 4.7368503 209
19.187092 -30.236717 4.7399993 124
19.404438 -30.168446 4.7478728 22
19.550201 -29.989019 4.7384248 25
19.615805 -29.689837 4.7100816 19
19.810846 -29.58869 4.7132311 37
20.936399 -28.538105 4.6848879 13
20.947912 -28.189489 4.6486716 60
21.134792 -28.079432 4.6518207 20
21.292263 -27.930304 4.6486716 27
21.361458 -27.667303 4.626627 26
21.457541 -27.441994 4.6108804 193
21.59598 -27.272514 4.6045823 139
21.844778 -27.241579 4.6219034 20
21.91403 -26.986973 4.6014328 23
22.169872 -26.962269 4.6203284 19
22.251163 -26.725166 4.6030078 59
22.468401 -26.6518 4.6140299 24
22.646955 -26.531528 4.6171789 27
22.638191 -26.194057 4.5825377 18
22.86116 -26.12628 4.5951343 18
22.918486 -25.869759 4.5746646 25
23.108561 -25.764071 4.5809631 29
23.298201 -25.657022 4.5872617 27
23.342472 -25.390972 4.5652165 27
23.441095 -25.186312 4.5541945 75
23.668619 -25.11993 4.5683661 42
23.764828 -24.913975 4.557344 33
23.851141 -24.699226 4.5447469 75
23.885818 -24.433319 4.5227022 221
24.052025 -24.303209 4.5258512 194
24.158592 -24.11315 4.5179777 226
24.407749 -24.06469 4.5368733 91
24.495291 -23.856373 4.5258512 43
24.701221 -23.763355 4.5368733 20
24.760332 -23.529398 4.5211272 41
25.025669 -23.491013 4.5431719 31
25.143167 -23.31275 4.5384483 29
25.268194 -23.141968 4.5352993 28
25.427357 -23.002449 4.5384483 44
25.550278 -22.830145 4.5352993 36
25.68096 -22.66507 4.5337243 36
25.828516 -22.514885 4.5352993 43
25.939131 -22.332693 4.5305748 42
26.084736 -22.18082 4.5321498 30
26.138353 -21.951494 4.5179777 65
26.281712 -21.798294 4.5195527 48
26.38736 -21.614008 4.5148287 58
26.500988 -21.436729 4.5116801 72
26.566956 -21.221743 4.5006571 212
26.818094 -21.154112 4.5211272 81
26.98493 -21.0184 4.5274258 40
27.122818 -20.859682 4.5290008 45
27.23135 -20.678476 4.5258512 46
27.4529 -20.582359 4.5415974 23
27.492619 -20.349827 4.5274258 31
27.6842 -20.229883 4.5384483 23
27.798159 -20.052675 4.5368733 24
27.930368 -19.888632 4.5384483 31
28.081074 -19.737402 4.5431719 39
28.221203 -19.578293 4.5463214 27
28.340801 -19.404762 4.5463214 17
28.49876 -19.257143 4.5526199 22
28.566895 -19.048914 4.5447469 51
28.722992 -18.899429 4.5510454 29
28.808483 -18.7034 4.5463214 39
28.952753 -18.54553 4.5510454 89
28.955379 -18.297626 4.5337243 190
29.097391 -18.138494 4.5384483 211
29.228407 -17.972075 4.5415974 216
29.45002 -17.860252 4.558918 122
29.650942 -17.734171 4.5730901 21
29.748951 -17.545858 4.5715151 25
29.845768 -17.357014 4.569941 24
30.271631 -17.356993 4.6187539 23
30.180792 -17.059698 4.5888357 14
30.460859 -16.728132 4.5998583 11
35.176792 -19.037975 5.2942657 13
35.376919 -18.86656 5.3068628 16
35.334053 -18.566135 5.2832432 25
31.192814 -15.904764 4.6345 19
31.226032 -15.681037 4.6250525 25
31.545595 -15.599883 4.6581192 20
31.64072 -15.406029 4.6581192 28
31.713202 -15.201312 4.6549702 110
31.730566 -14.970903 4.6439481 167
32.102364 -14.906189 4.6848879 22
32.106659 -14.669381 4.6722908 23
32.293716 -14.515997 4.6864624 25
32.414822 -14.332006 4.6911864 14
32.742161 -14.237206 4.7258282 28
32.861713 -14.050065 4.7305522 22
33.067944 -13.89887 4.7478728 18
33.053646 -13.654827 4.7337008 15
33.048626 -13.41596 4.7211041 25
33.43972 -13.336318 4.7651935 40
33.432308 -13.096172 4.7525964 74
33.678581 -12.954854 4.776216 116
33.790825 -12.76057 4.7809396 111
33.935413 -12.577799 4.7903872 88
34.101391 -12.401865 4.8029842 89
33.963955 -12.116443 4.7730665 89
34.06012 -11.915673 4.776216 150
34.233868 -11.741194 4.7903872 121
34.350368 -11.546079 4.7966857 147
34.544861 -11.376022 4.8140063 127
34.670624 -11.182104 4.8218799 152
34.806648 -10.99065 4.8313274 138
34.952991 -10.80146 4.8423495 120
35.143871 -10.624659 4.8596711 111
35.265442 -10.425683 4.8675437 123
35.75708 -10.095572 4.9179316 19
35.818352 -9.8759813 4.9179316 48
35.947205 -9.6745691 4.9273796 70
36.097939 -9.4779882 4.9399767 102
36.22456 -9.2740192 4.9494238 100
36.338497 -9.0659733 4.9572973 94
36.532158 -8.8765392 4.9761925 101
36.724857 -8.6850691 4.9950881 107
36.870205 -8.4808998 5.0076852 96
37.072475 -8.2882509 5.0281549 109
37.238888 -8.085866 5.0439014 103
37.450768 -7.8915601 5.0659461 114
37.580074 -7.678288 5.0769682 123
37.778187 -7.4775844 5.0974379 98
38.033669 -7.2859292 5.1257815 71
38.334999 -7.1000843 5.1604233 73
38.904804 -6.9589906 5.2312808 25
43.131889 -7.4422731 5.7934203 86
43.364506 -7.2086935 5.818614 118
43.560631 -6.9669018 5.8390841 85
43.731899 -6.7193608 5.8564048 107
43.960613 -6.478652 5.8815989 110
44.152672 -6.230402 5.9020691 101
44.366909 -5.9832172 5.9256883 102
44.50898 -5.7245321 5.9398599 100
44.684967 -5.4686642 5.9587555 97
44.9422 -5.2204595 5.9886732 99
45.22171 -4.9719028 6.0217404 104
45.40519 -4.7102919 6.0422101 97
45.587158 -4.4466157 6.0626802 101
45.803131 -4.1841297 6.0878739 63
46.06501 -3.9231985 6.1193666 55
46.254246 -3.6535897 6.1414113 80
46.524956 -3.3878539 6.1744785 90
46.782265 -3.1181412 6.2059708 56
47.002384 -2.8432431 6.232739 89
47.232765 -2.5664062 6.2610826 82
47.413975 -2.2845588 6.2831273 76
47.652931 -2.0030818 6.313045 69
47.925873 -1.7200379 6.3476868 79
47.828506 -1.4227544 6.3335147 62
47.479546 -1.1208348 6.2862763 67
47.116802 -0.82304382 6.2374635 61
46.704624 -0.52920747 6.1823511 58
46.397694 -0.24101666 6.1414113 46
46.029518 0.043331601 6.0925984 58
45.766674 0.32391036 6.0579567 52
45.406967 0.60000777 6.0107179 41
45.00993 0.87101287 5.9587555 63
44.753994 1.1408061 5.9256883 80
44.413227 1.4048591 5.8815989 79
44.059025 1.6643243 5.8359351 79
43.572594 1.9137543 5.7729502 36
43.393692 2.1727462 5.7509055 67
43.15387 2.4262757 5.7209878 78
42.912579 2.6769445 5.6910701 78
42.563034 2.9174228 5.6469808 90
42.307064 3.1608036 5.6154881 87
41.97858 3.3953991 5.5745482 75
41.708076 3.6312428 5.541481 80
41.459957 3.8661044 5.5115633 93
41.12767 4.0898185 5.470623 102
40.912514 4.3220992 5.4454293 100
40.660599 4.5479279 5.4155116 101
40.442902 4.7750125 5.3903174 81
40.117706 4.9863925 5.3509521 68
39.838631 5.2001209 5.3178849 70
39.582035 5.4138389 5.2879677 119
39.336094 5.6262879 5.259624 106
39.065514 5.8324118 5.2281318 113
38.805649 6.0372567 5.1982141 104
38.521267 6.235332 5.1651473 99
38.376694 6.4538202 5.1509752 95
38.113708 6.650322 5.1210575 53
37.849766 6.8438411 5.0911403 64
37.655048 7.047503 5.0706697 95
37.365826 7.2309537 5.0376029 111
37.145771 7.4251122 5.0139837 119
36.878143 7.6072307 4.9840655 109
36.714413 7.80862 4.9683194 120
36.491501 7.9955559 4.9447002 84
36.302498 8.1879044 4.9258046 103
35.985039 8.3486605 4.8895884 98
35.75956 8.5279093 4.8659692 77
35.567905 8.7131987 4.847074 78
35.409939 8.9051628 4.832902 99
35.124252 9.0628233 4.8014102 122
34.975979 9.253829 4.7888131 123
34.757797 9.4246778 4.7667685 119
34.538841 9.5931978 4.7447233 127
34.330574 9.7626429 4.7242537 109
34.132957 9.933218 4.705358 112
33.96875 10.11192 4.6911864 121
33.758114 10.275126 4.6707163 113
33.569481 10.443196 4.6533957 61
33.47076 10.638168 4.6486716 76
33.404854 10.843341 4.6486716 84
33.202183 11.003198 4.629776 83
33.111507 11.199093 4.626627 112
32.85099 11.336081 4.5998583 100
32.702267 11.50979 4.5888357 97
32.530254 11.674067 4.5746646 29
32.335117 11.828494 4.557344 75
32.217342 12.010054 4.5510454 58
32.09856 12.190615 4.5447469 44
31.85673 12.322961 4.5211272 43
31.714108 12.49204 4.5116801 37
31.63686 12.686399 4.5116801 26
31.283066 12.767895 4.4723139 23
31.083284 12.909412 4.4549932 70
30.981573 13.090633 4.4518442 50
30.856949 13.261697 4.4455457 38
30.491581 13.326911 4.4046054 84
30.539688 13.571726 4.423501 50
30.336586 13.704984 4.4061804 52
30.122189 13.831298 4.3872848 47
29.939734 13.970592 4.3731132 66
29.831947 14.143841 4.3699636 50
29.594551 14.254349 4.3479195 41
29.4531 14.409529 4.3400459 39
29.257595 14.537045 4.3242998 46
29.263433 14.76452 4.3384714 34
29.193468 14.954647 4.3416209 24
28.552328 14.848084 4.2597404 77
28.818384 15.211811 4.3132777 23
28.545927 15.518855 4.3006806 17
28.533501 15.739686 4.3132777 19
28.405245 15.897038 4.3085537 13
28.234751 16.029917 4.2975316 13
28.166788 16.220671 4.3022552 19
27.327118 15.961202 4.1888828 79
27.986084 16.577225 4.3054042 14
27.863447 16.736382 4.3022552 19
27.648468 16.838966 4.2849345 18
26.350224 16.270775 4.0991292 84
25.907051 16.217537 4.0455923 99
25.716654 16.318829 4.0314207 171
25.515985 16.411961 4.0156741 86
25.115837 16.373316 3.968436 50
24.796535 16.382845 3.9337943 51
24.239229 16.445457 3.8771079 9
25.804405 17.739561 4.1447935 14
23.215616 16.170527 3.7448399 56
22.941004 16.189207 3.7164967 46
22.318653 15.95606 3.6314671 236
22.201059 16.078749 3.6283178 138
21.929331 16.088007 3.5999749 40
21.60104 16.051966 3.5621839 76
21.340559 16.062586 3.5354152 24
21.222677 16.178802 3.5322661 20
20.831104 16.083344 3.4834528 25
20.553968 16.07163 3.4535353 23
19.83547 15.905885 3.3653564 74
19.441978 15.787325 3.3149686 23
19.059891 15.672099 3.2661552 155
18.826237 15.674577 3.2425361 235
18.565987 15.651778 3.2141929 301
18.433407 15.734509 3.2078943 177
18.25551 15.777308 3.1937227 52
17.952446 15.708847 3.1575067 48
17.69544 15.67671 3.1291635 115
17.554636 15.745275 3.1212902 58
17.299168 15.708741 3.0929472 52
17.088604 15.709925 3.0724771 55
16.817724 15.652387 3.0409846 43
16.591492 15.632913 3.0173655 43
16.40057 15.6441 3.0000446 67
16.038986 15.488263 2.9512315 101
15.884104 15.528172 2.9402092 93
15.636327 15.474718 2.9118659 157
15.322577 15.351454 2.8709259 217
14.86895 15.080918 2.8032172 250
14.693136 15.086646 2.7874711 337
14.468328 15.039347 2.7622769 323
14.269242 15.015734 2.7418067 336
14.111706 15.033617 2.7292101 321
13.922134 15.01524 2.7103145 250
13.765464 15.030199 2.6977177 168
13.577211 15.008514 2.678822 224
13.413527 15.011703 2.6646504 244
13.21883 14.977773 2.6441805 264
13.071961 14.995828 2.6331582 279
12.878798 14.958555 2.6126881 293
12.725121 14.964794 2.600091 263
12.525951 14.915055 2.5780466 271
12.365848 14.909224 2.563875 284
12.19875 14.892787 2.5481286 260
12.024842 14.865617 2.5308077 254
11.86658 14.855467 2.5166364 238
11.708898 14.843938 2.5024648 299
11.544495 14.82165 2.4867184 284
11.417071 14.845057 2.4788454 295
11.239437 14.801141 2.45995 280
11.112726 14.822234 2.4520767 310
10.936639 14.7754 2.4331815 292
10.775584 14.746177 2.4174352 312
10.622263 14.725185 2.4032636 301
10.483409 14.722253 2.3922412 311
10.351832 14.727904 2.3827934 290
10.220584 14.732499 2.3733461 275
10.062786 14.696774 2.3575997 231
9.9191341 14.679386 2.3450027 283
9.7958775 14.690485 2.3371296 284
9.6532412 14.670812 2.3245325 310
9.5047398 14.639966 2.3103609 292
9.3762331 14.637908 2.3009136 341
9.229044 14.604653 2.2867417 300
9.0952063 14.590339 2.2757194 252
8.9618921 14.574935 2.2646971 174
8.8229427 14.548275 2.2521 258
8.7029791 14.55109 2.2442269 350
8.5712271 14.53249 2.2332046 365
8.4579735 14.543674 2.2269063 373
8.3271551 14.523056 2.215884 344
8.2086172 14.522096 2.2080109 305
8.0730343 14.489053 2.1954138 361
7.9725266 14.517461 2.1922646 355
7.8380008 14.482408 2.1796675 362
7.709805 14.45675 2.1686451 383
7.6098881 14.482722 2.1654959 358
7.4607244 14.412931 2.1481752 408
7.3559365 14.426644 2.1434515 415
7.2405849 14.418353 2.1355784 393
7.1572523 14.473172 2.1371529 301
7.0787272 14.538207 2.1403022 250
7.7247086 16.115402 2.3654728 52
7.7221284 16.366915 2.3953905 66
7.6816778 16.543467 2.4142859 79
7.6640687 16.774235 2.4410546 80
7.6390357 16.994551 2.4662483 60
7.6115856 17.215189 2.4914424 59
7.5817118 17.436119 2.5166364 53
7.5774713 17.722956 2.5512779 49
7.5930395 18.065224 2.5937924 51
7.5501828 18.276398 2.6174119 60
7.4781699 18.421585 2.6315835 37
7.4751687 18.743372 2.670949 57
7.4164281 18.932882 2.6914191 53
7.4197044 19.288919 2.7355082 51
7.3978734 19.590054 2.7717247 54
7.3312788 19.780088 2.7921948 75
7.1975751 19.791161 2.7874711 59
5.1053948 14.311081 2.0111833 428
