ply
format ascii 1.0
element vertex 818
property float x 
property float y
property float z
property float nx 
property float ny
property float nz
end_header
-0.299526 0.086657 0.366646 -0.596086 0.325182 0.734124 
-0.286300 0.095367 0.377300 -0.549306 0.385527 0.741372 
-0.273812 0.104024 0.387371 -0.486644 0.421363 0.765265 
-0.080600 -0.558874 0.515300 0.002310 -0.977850 0.209299 
-0.097165 -0.550613 0.502450 -0.049730 -0.945544 0.321676 
-0.108618 -0.542752 0.493617 -0.084863 -0.938041 0.335973 
-0.118435 -0.535029 0.486073 -0.187973 -0.873685 0.448711 
-0.127463 -0.527399 0.479144 -0.232950 -0.823750 0.516885 
-0.135548 -0.519852 0.472954 -0.307888 -0.762245 0.569376 
-0.142259 -0.512415 0.467844 -0.345243 -0.726067 0.594671 
-0.148129 -0.505054 0.463391 -0.374457 -0.666747 0.644384 
-0.152388 -0.497793 0.460209 -0.370396 -0.637017 0.676030 
-0.156068 -0.490579 0.457474 -0.383492 -0.620162 0.684350 
-0.158931 -0.483411 0.455391 -0.403760 -0.567259 0.717771 
-0.160757 -0.476298 0.454120 -0.439160 -0.509093 0.740246 
-0.162207 -0.469214 0.453141 -0.448629 -0.459762 0.766389 
-0.342881 -0.455222 0.311211 -0.188299 -0.561743 0.805598 
-0.352268 -0.448244 0.303980 -0.320539 -0.509803 0.798347 
-0.357943 -0.441436 0.299670 -0.362250 -0.478589 0.799830 
-0.361151 -0.434730 0.297299 -0.440724 -0.397487 0.804841 
-0.363245 -0.428065 0.295806 -0.486160 -0.327885 0.810025 
-0.364085 -0.421442 0.295303 -0.527413 -0.276442 0.803377 
-0.363163 -0.414872 0.296180 -0.570337 -0.193006 0.798413 
-0.362619 -0.408282 0.296762 -0.606624 -0.131165 0.784093 
-0.362781 -0.401677 0.296789 -0.626708 -0.093894 0.773577 
-0.362597 -0.395078 0.297090 -0.650929 -0.048849 0.757565 
-0.362447 -0.388475 0.297359 -0.670251 -0.035990 0.741262 
-0.361174 -0.381883 0.298514 -0.680981 -0.039329 0.731245 
-0.359351 -0.375294 0.300105 -0.691104 -0.070791 0.719281 
-0.356892 -0.368703 0.302200 -0.663814 -0.063192 0.745223 
-0.356198 -0.362087 0.302895 -0.633579 -0.098239 0.767416 
-0.355926 -0.355462 0.303270 -0.598324 -0.150581 0.786977 
-0.355658 -0.348835 0.303632 -0.565246 -0.207227 0.798470 
-0.356202 -0.342199 0.303355 -0.504261 -0.265637 0.821680 
-0.357895 -0.335570 0.302179 -0.450358 -0.318486 0.834113 
-0.363318 -0.328959 0.298068 -0.402342 -0.391113 0.827739 
-0.369879 -0.322376 0.293056 -0.377992 -0.440932 0.814065 
-0.376620 -0.315819 0.287894 -0.358768 -0.469757 0.806607 
-0.382046 -0.309276 0.283782 -0.369237 -0.473243 0.799815 
-0.386314 -0.302743 0.280573 -0.407896 -0.451819 0.793397 
-0.389894 -0.296220 0.277902 -0.445226 -0.422536 0.789453 
-0.392771 -0.289695 0.275792 -0.486756 -0.392852 0.780215 
-0.395358 -0.283184 0.273901 -0.528692 -0.359801 0.768784 
-0.397597 -0.276672 0.272295 -0.562780 -0.328277 0.758626 
-0.399058 -0.270149 0.271299 -0.606016 -0.282132 0.743737 
-0.400069 -0.263619 0.270651 -0.627241 -0.250351 0.737491 
-0.400748 -0.257085 0.270270 -0.662507 -0.210165 0.718968 
-0.401271 -0.250548 0.270014 -0.680731 -0.168792 0.712822 
-0.401518 -0.243999 0.269967 -0.695597 -0.130753 0.706433 
-0.401256 -0.237442 0.270334 -0.728838 -0.070783 0.681017 
-0.400002 -0.230836 0.271475 -0.753448 -0.011799 0.657400 
-0.398424 -0.224218 0.272868 -0.786274 0.042935 0.616384 
-0.396359 -0.217567 0.274649 -0.806291 0.069459 0.587428 
-0.393492 -0.210874 0.277067 -0.828780 0.135254 0.542983 
-0.390010 -0.204141 0.279967 -0.840340 0.200799 0.503496 
-0.385519 -0.197344 0.283657 -0.853834 0.256894 0.452740 
-0.380211 -0.190488 0.288003 -0.859033 0.309674 0.407633 
-0.374518 -0.183582 0.292640 -0.857645 0.353664 0.373319 
-0.368145 -0.176612 0.297824 -0.852838 0.395133 0.341376 
-0.359977 -0.169519 0.304419 -0.837904 0.420756 0.347680 
-0.349889 -0.162274 0.312531 -0.828527 0.403094 0.388663 
-0.337885 -0.154870 0.322158 -0.791568 0.359437 0.494193 
-0.321600 -0.147145 0.335161 -0.684770 0.315792 0.656785 
-0.309011 -0.139581 0.345251 -0.606996 0.164888 0.777411 
-0.303799 -0.132457 0.349523 -0.514893 0.058352 0.855267 
-0.306482 -0.125845 0.347564 -0.403495 -0.070038 0.912297 
-0.315733 -0.119714 0.340425 -0.404801 -0.149844 0.902043 
-0.322850 -0.113469 0.334966 -0.418435 -0.240466 0.875836 
-0.328691 -0.107149 0.330515 -0.381489 -0.291630 0.877165 
-0.333789 -0.100806 0.326650 -0.378516 -0.336086 0.862422 
-0.338317 -0.094433 0.323231 -0.379717 -0.363843 0.850549 
-0.342645 -0.088062 0.319974 -0.411190 -0.362400 0.836414 
-0.345694 -0.081603 0.317717 -0.437745 -0.336289 0.833840 
-0.348548 -0.075137 0.315631 -0.471946 -0.310772 0.825039 
-0.351233 -0.068663 0.313660 -0.491557 -0.276811 0.825680 
-0.353174 -0.062140 0.312288 -0.513123 -0.257089 0.818907 
-0.354135 -0.055532 0.311682 -0.528455 -0.228903 0.817520 
-0.353706 -0.048790 0.312176 -0.534337 -0.206797 0.819585 
-0.353064 -0.042026 0.312842 -0.546947 -0.185598 0.816336 
-0.352893 -0.035300 0.313137 -0.552760 -0.159221 0.817989 
-0.353861 -0.028693 0.312528 -0.576697 -0.137578 0.805291 
-0.355978 -0.022204 0.311016 -0.590537 -0.114778 0.798807 
-0.358057 -0.015727 0.309528 -0.606555 -0.089438 0.789995 
-0.359131 -0.009143 0.308833 -0.624758 -0.055974 0.778809 
-0.358561 -0.002384 0.309443 -0.641226 -0.011350 0.767268 
-0.357166 0.004481 0.310706 -0.667162 0.051493 0.743131 
-0.354145 0.011533 0.313244 -0.685458 0.111704 0.719494 
-0.349199 0.018827 0.317312 -0.687746 0.152459 0.709762 
-0.341263 0.026504 0.323734 -0.690825 0.200546 0.694653 
-0.336048 0.033884 0.328021 -0.680924 0.212475 0.700854 
-0.330950 0.041281 0.332205 -0.672033 0.213865 0.708966 
-0.325283 0.048767 0.336843 -0.658764 0.211774 0.721929 
-0.321971 0.055973 0.339614 -0.657430 0.214123 0.722452 
-0.320970 0.062903 0.340572 -0.650017 0.217866 0.728019 
-0.319913 0.069845 0.341567 -0.645161 0.237268 0.726272 
-0.316603 0.077088 0.344337 -0.640552 0.271060 0.718485 
-0.310341 0.084764 0.349444 -0.636408 0.317653 0.702908 
-0.304427 0.092416 0.354285 -0.649623 0.344507 0.677720 
-0.296563 0.100367 0.360665 -0.659180 0.367616 0.656003 
-0.283915 0.109047 0.370819 -0.665208 0.382815 0.641055 
-0.266796 0.118446 0.384522 -0.557034 0.440345 0.704138 
-0.056397 -0.560138 0.525136 0.156948 -0.983947 0.084952 
-0.090502 -0.550703 0.498596 0.016454 -0.982351 0.186326 
-0.105449 -0.542616 0.487056 -0.060786 -0.949199 0.308750 
-0.116070 -0.534845 0.478895 -0.159956 -0.903366 0.397924 
-0.125584 -0.527185 0.471612 -0.185273 -0.873443 0.450303 
-0.134029 -0.519632 0.465160 -0.277265 -0.808021 0.519834 
-0.141740 -0.512145 0.459289 -0.324365 -0.753602 0.571729 
-0.148677 -0.504737 0.454015 -0.325531 -0.735306 0.594436 
-0.153820 -0.497442 0.450146 -0.321773 -0.713463 0.622443 
-0.157969 -0.490212 0.447062 -0.326117 -0.685990 0.650435 
-0.161978 -0.483012 0.444082 -0.338635 -0.686156 0.643829 
-0.164773 -0.475877 0.442052 -0.367436 -0.632524 0.681839 
-0.332989 -0.462028 0.310385 -0.013531 -0.647969 0.761547 
-0.346799 -0.454846 0.299723 -0.187753 -0.645685 0.740162 
-0.354649 -0.447944 0.293720 -0.322611 -0.562597 0.761188 
-0.360664 -0.441137 0.289156 -0.371900 -0.523209 0.766774 
-0.364706 -0.434413 0.286148 -0.461040 -0.436572 0.772559 
-0.367538 -0.427744 0.284078 -0.501464 -0.388053 0.773270 
-0.369423 -0.421111 0.282752 -0.557749 -0.293414 0.776416 
-0.368947 -0.414549 0.283274 -0.594476 -0.240365 0.767347 
-0.367902 -0.407994 0.284254 -0.626897 -0.165598 0.761300 
-0.365959 -0.401449 0.285930 -0.648337 -0.113189 0.752893 
-0.364551 -0.394888 0.287185 -0.672403 -0.064068 0.737407 
-0.363037 -0.388318 0.288528 -0.683617 -0.038737 0.728813 
-0.361690 -0.381736 0.289737 -0.691583 -0.035876 0.721406 
-0.360256 -0.375158 0.291010 -0.691718 -0.054902 0.720079 
-0.358935 -0.368563 0.292203 -0.690603 -0.103247 0.715826 
-0.359357 -0.361943 0.292029 -0.677048 -0.134756 0.723497 
-0.359342 -0.355333 0.292186 -0.634335 -0.195293 0.747983 
-0.358614 -0.348723 0.292913 -0.592603 -0.252040 0.765047 
-0.359189 -0.342105 0.292616 -0.518819 -0.314987 0.794738 
-0.361240 -0.335492 0.291158 -0.467388 -0.376075 0.800073 
-0.367184 -0.328890 0.286654 -0.418572 -0.428396 0.800798 
-0.373873 -0.322323 0.281552 -0.385719 -0.469531 0.794205 
-0.380166 -0.315783 0.276772 -0.375462 -0.491212 0.785964 
-0.385376 -0.309256 0.272832 -0.392864 -0.479778 0.784520 
-0.389285 -0.302730 0.269915 -0.426795 -0.455846 0.781056 
-0.392546 -0.296216 0.267507 -0.467324 -0.426275 0.774531 
-0.395315 -0.289708 0.265494 -0.509514 -0.391527 0.766226 
-0.397720 -0.283207 0.263754 -0.542034 -0.359541 0.759559 
-0.399765 -0.276698 0.262297 -0.572895 -0.324422 0.752690 
-0.400852 -0.270180 0.261602 -0.602783 -0.288904 0.743766 
-0.401671 -0.263662 0.261103 -0.627423 -0.247214 0.738395 
-0.402027 -0.257130 0.260979 -0.653644 -0.208542 0.727503 
-0.402300 -0.250591 0.260918 -0.679998 -0.169862 0.713267 
-0.402279 -0.244048 0.261086 -0.707369 -0.141318 0.692574 
-0.401629 -0.237482 0.261744 -0.734835 -0.082077 0.673262 
-0.400394 -0.230893 0.262874 -0.768368 -0.017939 0.639756 
-0.398777 -0.224279 0.264291 -0.787584 0.045595 0.614517 
-0.396574 -0.217636 0.266178 -0.801332 0.083651 0.592343 
-0.393848 -0.210951 0.268469 -0.830740 0.148538 0.536476 
-0.390685 -0.204247 0.271111 -0.849966 0.206487 0.484686 
-0.386184 -0.197457 0.274800 -0.872237 0.254867 0.417425 
-0.381031 -0.190609 0.278994 -0.873348 0.304990 0.379794 
-0.374679 -0.183686 0.284146 -0.867346 0.355086 0.348748 
-0.368062 -0.176708 0.289496 -0.862176 0.393072 0.319606 
-0.360418 -0.169651 0.295660 -0.856434 0.411920 0.311197 
-0.351436 -0.162483 0.302871 -0.848820 0.391526 0.355264 
-0.341898 -0.155235 0.310526 -0.856784 0.310717 0.411551 
-0.329171 -0.147747 0.320686 -0.759531 0.235251 0.606440 
-0.321323 -0.140516 0.327007 -0.676677 0.173688 0.715501 
-0.318736 -0.133598 0.329196 -0.589108 0.036078 0.807248 
-0.319003 -0.126870 0.329151 -0.532167 -0.113517 0.838994 
-0.324345 -0.120497 0.325107 -0.510521 -0.181589 0.840473 
-0.328567 -0.114058 0.321945 -0.447249 -0.280824 0.849179 
-0.333264 -0.107680 0.318407 -0.439671 -0.340380 0.831162 
-0.338458 -0.101358 0.314475 -0.438790 -0.381829 0.813431 
-0.342922 -0.094996 0.311123 -0.420730 -0.413688 0.807372 
-0.346769 -0.088602 0.308251 -0.445193 -0.401664 0.800294 
-0.349816 -0.082165 0.306006 -0.468541 -0.381185 0.796973 
-0.352596 -0.075703 0.303974 -0.495802 -0.358642 0.790922 
-0.354966 -0.069224 0.302266 -0.521299 -0.334234 0.785197 
-0.356307 -0.062663 0.301374 -0.542870 -0.299968 0.784419 
-0.357071 -0.056049 0.300922 -0.556373 -0.279556 0.782494 
-0.357045 -0.049355 0.301097 -0.566476 -0.249601 0.785369 
-0.357044 -0.042670 0.301255 -0.575412 -0.214465 0.789243 
-0.358246 -0.036100 0.300469 -0.588696 -0.196880 0.784012 
-0.360536 -0.029652 0.298821 -0.614455 -0.181304 0.767838 
-0.362123 -0.023129 0.297727 -0.641500 -0.160915 0.750056 
-0.363309 -0.016574 0.296942 -0.661349 -0.138526 0.737175 
-0.363558 -0.009921 0.296906 -0.678201 -0.109094 0.726734 
-0.363063 -0.003189 0.297451 -0.697393 -0.044681 0.715294 
-0.361955 0.003626 0.298476 -0.718278 0.008024 0.695711 
-0.359627 0.010581 0.300465 -0.725333 0.071958 0.684628 
-0.356112 0.017686 0.303390 -0.731484 0.125835 0.670147 
-0.351371 0.024953 0.307275 -0.733912 0.168459 0.658024 
-0.341581 0.032861 0.315146 -0.717378 0.187990 0.670842 
-0.334127 0.040529 0.321170 -0.696693 0.198462 0.689370 
-0.330266 0.047770 0.324372 -0.680287 0.199686 0.705220 
-0.329399 0.054645 0.325207 -0.682014 0.190715 0.706034 
-0.329172 0.061451 0.325548 -0.678538 0.193886 0.708515 
-0.328847 0.068262 0.325960 -0.677269 0.198320 0.708503 
-0.327665 0.075195 0.327042 -0.675999 0.230985 0.699765 
-0.321703 0.082791 0.331896 -0.683534 0.286497 0.671342 
-0.311497 0.091012 0.340098 -0.673442 0.335620 0.658661 
-0.302521 0.099095 0.347328 -0.694465 0.354629 0.626064 
-0.295364 0.106971 0.353123 -0.701060 0.380862 0.602875 
-0.285859 0.115216 0.360774 -0.705908 0.392557 0.589570 
-0.273412 0.123935 0.370748 -0.682885 0.409183 0.605176 
-0.225458 0.138062 0.408704 -0.431810 -1.115690 1.252510 
-0.075251 -0.551341 0.501411 0.107608 -0.992981 0.049113 
-0.098864 -0.542689 0.483152 0.003443 -0.977657 0.210181 
-0.112691 -0.534727 0.472527 -0.119720 -0.927676 0.353675 
-0.123413 -0.527000 0.464318 -0.160225 -0.903282 0.398009 
-0.132393 -0.519419 0.457472 -0.230195 -0.856668 0.461659 
-0.140184 -0.511936 0.451561 -0.288004 -0.798650 0.528405 
-0.147628 -0.504500 0.445911 -0.276634 -0.782759 0.557460 
-0.154114 -0.497147 0.441004 -0.287550 -0.757062 0.586662 
-0.160288 -0.489834 0.436347 -0.280747 -0.749663 0.599325 
-0.164951 -0.482613 0.432873 -0.284665 -0.735361 0.614988 
-0.169696 -0.475407 0.429328 -0.315863 -0.699042 0.641538 
-0.338575 -0.461563 0.297607 -0.085826 -0.724534 0.683876 
-0.349055 -0.454532 0.289577 -0.197415 -0.684500 0.701775 
-0.356745 -0.447648 0.283718 -0.333351 -0.605718 0.722485 
-0.362841 -0.440852 0.279113 -0.395138 -0.566845 0.722879 
-0.367408 -0.434126 0.275691 -0.484502 -0.486969 0.726718 
-0.370315 -0.427468 0.273573 -0.518281 -0.439956 0.733365 
-0.372346 -0.420846 0.272137 -0.583396 -0.341229 0.737029 
-0.373736 -0.414249 0.271205 -0.607253 -0.288382 0.740324 
-0.373590 -0.407692 0.271471 -0.647843 -0.211875 0.731716 
-0.372832 -0.401141 0.272216 -0.678787 -0.142316 0.720413 
-0.369472 -0.394643 0.274989 -0.689181 -0.094487 0.718402 
-0.365343 -0.388135 0.278375 -0.697115 -0.048795 0.715297 
-0.362116 -0.381592 0.281045 -0.703243 -0.031615 0.710245 
-0.360757 -0.375018 0.282262 -0.695667 -0.045310 0.716934 
-0.360455 -0.368420 0.282647 -0.680717 -0.084956 0.727605 
-0.360790 -0.361818 0.282537 -0.667923 -0.122498 0.734080 
-0.360963 -0.355220 0.282556 -0.620890 -0.201607 0.757528 
-0.360528 -0.348612 0.283052 -0.581251 -0.274573 0.766000 
-0.362213 -0.342005 0.281879 -0.523669 -0.349207 0.777061 
-0.364979 -0.335407 0.279869 -0.461860 -0.395596 0.793845 
-0.371855 -0.328828 0.274648 -0.414031 -0.448285 0.792225 
-0.378112 -0.322278 0.269909 -0.387145 -0.484393 0.784528 
-0.383533 -0.315749 0.265817 -0.381976 -0.496737 0.779326 
-0.388172 -0.309231 0.262347 -0.404206 -0.478751 0.779368 
-0.391730 -0.302713 0.259715 -0.440818 -0.450926 0.776110 
-0.394891 -0.296215 0.257388 -0.475762 -0.422752 0.771318 
-0.397392 -0.289713 0.255588 -0.511274 -0.386086 0.767813 
-0.399476 -0.283214 0.254108 -0.542523 -0.355267 0.761220 
-0.401374 -0.276718 0.252773 -0.572999 -0.311652 0.757988 
-0.402674 -0.270215 0.251905 -0.592071 -0.280157 0.755622 
-0.403468 -0.263702 0.251440 -0.611780 -0.246639 0.751594 
-0.403800 -0.257183 0.251322 -0.637803 -0.204744 0.742488 
-0.403573 -0.250643 0.251657 -0.662363 -0.161525 0.731563 
-0.403148 -0.244098 0.252136 -0.669955 -0.119212 0.732768 
-0.402406 -0.237540 0.252873 -0.699451 -0.065956 0.711631 
-0.400926 -0.230951 0.254183 -0.727900 -0.008164 0.685635 
-0.399122 -0.224341 0.255745 -0.767758 0.046576 0.639044 
-0.396805 -0.217697 0.257706 -0.792895 0.089521 0.602747 
-0.393962 -0.211020 0.260081 -0.824821 0.164594 0.540905 
-0.390919 -0.204323 0.262618 -0.856061 0.216561 0.469319 
-0.386722 -0.197554 0.266051 -0.864466 0.270329 0.423817 
-0.381527 -0.190720 0.270281 -0.882695 0.308143 0.354819 
-0.374940 -0.183788 0.275583 -0.878807 0.353558 0.320461 
-0.367588 -0.176787 0.281497 -0.871986 0.398897 0.283762 
-0.360242 -0.169755 0.287399 -0.872697 0.399569 0.280617 
-0.352068 -0.162633 0.293954 -0.868882 0.365179 0.334197 
-0.343922 -0.155482 0.300492 -0.864524 0.294936 0.406952 
-0.334196 -0.148193 0.308269 -0.844049 0.183945 0.503732 
-0.326896 -0.141020 0.314133 -0.732667 0.122736 0.669429 
-0.323461 -0.134064 0.316986 -0.679842 -0.019489 0.733100 
-0.324027 -0.127371 0.316696 -0.598400 -0.144076 0.788136 
-0.327817 -0.120904 0.313881 -0.572739 -0.222416 0.788987 
-0.332082 -0.114492 0.310691 -0.530554 -0.332767 0.779602 
-0.336855 -0.108134 0.307107 -0.499897 -0.386513 0.775056 
-0.341567 -0.101787 0.303569 -0.465884 -0.431832 0.772317 
-0.345901 -0.095433 0.300325 -0.459826 -0.449781 0.765674 
-0.349684 -0.089049 0.297523 -0.475136 -0.449396 0.756499 
-0.352769 -0.082622 0.295253 -0.495813 -0.430893 0.753990 
-0.355354 -0.076163 0.293380 -0.520125 -0.403413 0.752813 
-0.357376 -0.069667 0.291957 -0.548329 -0.380342 0.744766 
-0.358666 -0.063111 0.291096 -0.574773 -0.348130 0.740569 
-0.359460 -0.056515 0.290624 -0.591213 -0.320049 0.740295 
-0.360312 -0.049923 0.290114 -0.606436 -0.298054 0.737157 
-0.361501 -0.043367 0.289337 -0.621515 -0.279149 0.731980 
-0.362947 -0.036835 0.288359 -0.640076 -0.254264 0.725020 
-0.365042 -0.030382 0.286871 -0.659446 -0.230082 0.715676 
-0.366259 -0.023844 0.286066 -0.676022 -0.202357 0.708552 
-0.366536 -0.017207 0.286003 -0.694163 -0.180807 0.696739 
-0.366390 -0.010529 0.286271 -0.714896 -0.136665 0.685745 
-0.365624 -0.003772 0.287024 -0.733338 -0.089222 0.673984 
-0.364467 0.003024 0.288090 -0.751156 -0.037380 0.659065 
-0.362453 0.009928 0.289826 -0.763783 0.022760 0.645073 
-0.359698 0.016932 0.292140 -0.771401 0.095167 0.629194 
-0.356195 0.024044 0.295040 -0.767173 0.137124 0.626612 
-0.350758 0.031400 0.299457 -0.758376 0.168185 0.629747 
-0.343097 0.039058 0.305624 -0.741209 0.172714 0.648676 
-0.335647 0.046725 0.311628 -0.722573 0.168571 0.670427 
-0.335031 0.053554 0.312269 -0.720317 0.160060 0.674924 
-0.334888 0.060317 0.312537 -0.718509 0.159431 0.676997 
-0.335012 0.067053 0.312590 -0.724876 0.159779 0.670094 
-0.333023 0.074077 0.314312 -0.724537 0.192271 0.661876 
-0.328350 0.081476 0.318139 -0.714598 0.256425 0.650842 
-0.322577 0.089051 0.322827 -0.709188 0.317590 0.629436 
-0.309639 0.097666 0.333137 -0.709057 0.360006 0.606328 
-0.298621 0.106067 0.341948 -0.716608 0.375822 0.587563 
-0.291566 0.113936 0.347650 -0.709882 0.387352 0.588239 
-0.284562 0.121832 0.353304 -0.702624 0.395898 0.591256 
-0.273467 0.130375 0.362176 -0.698988 0.389337 0.599862 
-0.219192 0.145553 0.404967 -0.431810 -1.115690 1.252510 
-0.086988 -0.543096 0.483355 0.076483 -0.991279 0.107322 
-0.106693 -0.534760 0.468189 0.001680 -0.974078 0.226213 
-0.119968 -0.526884 0.458031 -0.113633 -0.926097 0.359769 
-0.129706 -0.519260 0.450623 -0.203931 -0.878237 0.432565 
-0.138524 -0.511730 0.443925 -0.237362 -0.838991 0.489646 
-0.146317 -0.504278 0.438018 -0.258710 -0.814060 0.519977 
-0.153721 -0.496884 0.432422 -0.252634 -0.806906 0.533930 
-0.160238 -0.489561 0.427512 -0.247354 -0.791068 0.559490 
-0.167970 -0.482220 0.421661 -0.244836 -0.763658 0.597397 
-0.323261 -0.468607 0.300982 0.079572 -0.771869 0.630783 
-0.341216 -0.461226 0.287161 -0.126190 -0.754622 0.643912 
-0.350479 -0.454255 0.280101 -0.211021 -0.726610 0.653842 
-0.357736 -0.447397 0.274607 -0.331709 -0.651228 0.682548 
-0.363688 -0.440614 0.270128 -0.402440 -0.606384 0.685814 
-0.367505 -0.433923 0.267308 -0.482196 -0.539088 0.690559 
-0.370943 -0.427260 0.264780 -0.520163 -0.490336 0.699286 
-0.373383 -0.420632 0.263030 -0.580488 -0.408505 0.704386 
-0.375092 -0.414035 0.261853 -0.615933 -0.334447 0.713283 
-0.376389 -0.407455 0.260988 -0.649682 -0.248873 0.718314 
-0.377053 -0.400897 0.260623 -0.678207 -0.180174 0.712441 
-0.376157 -0.394359 0.261474 -0.690286 -0.127135 0.712278 
-0.373375 -0.387853 0.263791 -0.698483 -0.082663 0.710836 
-0.368957 -0.381357 0.267386 -0.701482 -0.053474 0.710679 
-0.363516 -0.374856 0.271767 -0.698641 -0.049877 0.713732 
-0.361996 -0.368286 0.273102 -0.676038 -0.075870 0.732951 
-0.361938 -0.361696 0.273305 -0.654004 -0.107767 0.748776 
-0.361684 -0.355102 0.273650 -0.609815 -0.183870 0.770921 
-0.361939 -0.348509 0.273600 -0.562472 -0.258229 0.785456 
-0.364781 -0.341915 0.271541 -0.503664 -0.337628 0.795193 
-0.369290 -0.335329 0.268180 -0.450401 -0.400605 0.797906 
-0.376100 -0.328767 0.263028 -0.411288 -0.437889 0.799435 
-0.381544 -0.322224 0.258931 -0.387622 -0.469352 0.793384 
-0.386156 -0.315706 0.255486 -0.385968 -0.481264 0.787028 
-0.390416 -0.309194 0.252320 -0.414515 -0.466185 0.781569 
-0.393567 -0.302695 0.250007 -0.451917 -0.437194 0.777581 
-0.396544 -0.296200 0.247845 -0.476525 -0.409401 0.778019 
-0.399295 -0.289714 0.245848 -0.504722 -0.375350 0.777412 
-0.401448 -0.283227 0.244323 -0.527325 -0.345626 0.776189 
-0.403226 -0.276740 0.243081 -0.544016 -0.308183 0.780430 
-0.404592 -0.270255 0.242164 -0.558149 -0.272217 0.783815 
-0.405750 -0.263765 0.241413 -0.576286 -0.237081 0.782105 
-0.406059 -0.257252 0.241328 -0.589311 -0.191500 0.784883 
-0.405860 -0.250729 0.241627 -0.602698 -0.150530 0.783642 
-0.406037 -0.244214 0.241644 -0.624798 -0.106649 0.773468 
-0.405216 -0.237667 0.242429 -0.656106 -0.071072 0.751314 
-0.403637 -0.231086 0.243810 -0.684194 -0.012628 0.729191 
-0.401684 -0.224481 0.245488 -0.715373 0.064523 0.695756 
-0.398411 -0.217816 0.248188 -0.733635 0.111970 0.670256 
-0.395405 -0.211144 0.250684 -0.797296 0.170708 0.578946 
-0.391977 -0.204437 0.253504 -0.832992 0.246611 0.495285 
-0.387257 -0.197657 0.257340 -0.866406 0.275245 0.416630 
-0.382014 -0.190827 0.261582 -0.878790 0.325756 0.348729 
-0.375284 -0.183904 0.266984 -0.890238 0.347903 0.294006 
-0.367574 -0.176886 0.273152 -0.876701 0.396829 0.271886 
-0.359902 -0.169843 0.279289 -0.877785 0.389323 0.279145 
-0.351846 -0.162744 0.285731 -0.885158 0.341730 0.315777 
-0.344454 -0.155641 0.291655 -0.881151 0.260334 0.394715 
-0.336905 -0.148498 0.297697 -0.857219 0.162681 0.488580 
-0.332707 -0.141539 0.301125 -0.809570 0.025952 0.586448 
-0.330407 -0.134677 0.303078 -0.760919 -0.050247 0.646898 
-0.330011 -0.127945 0.303542 -0.676911 -0.182950 0.712966 
-0.332393 -0.121396 0.301837 -0.645857 -0.253270 0.720225 
-0.335148 -0.114888 0.299841 -0.552676 -0.362620 0.750371 
-0.338787 -0.108458 0.297148 -0.518826 -0.403823 0.753490 
-0.343176 -0.102105 0.293877 -0.488135 -0.450421 0.747560 
-0.347310 -0.095745 0.290797 -0.478739 -0.471277 0.740748 
-0.351090 -0.089370 0.288003 -0.490848 -0.471089 0.732900 
-0.354131 -0.082947 0.285779 -0.516084 -0.460845 0.721998 
-0.356821 -0.076509 0.283832 -0.540038 -0.436859 0.719384 
-0.358927 -0.070035 0.282345 -0.567174 -0.409293 0.714698 
-0.360805 -0.063538 0.281021 -0.593333 -0.384682 0.707089 
-0.362554 -0.057040 0.279817 -0.617295 -0.356506 0.701320 
-0.363366 -0.050460 0.279331 -0.637151 -0.338746 0.692308 
-0.364543 -0.043920 0.278561 -0.656374 -0.318140 0.684076 
-0.366099 -0.037417 0.277505 -0.676504 -0.297081 0.673858 
-0.367017 -0.030859 0.276935 -0.697231 -0.270000 0.664056 
-0.367582 -0.024264 0.276652 -0.716564 -0.243580 0.653609 
-0.367807 -0.017632 0.276620 -0.734297 -0.214245 0.644132 
-0.367555 -0.010953 0.276977 -0.748096 -0.172095 0.640888 
-0.366986 -0.004233 0.277577 -0.768153 -0.122370 0.628462 
-0.366299 0.002502 0.278260 -0.789285 -0.074359 0.609507 
-0.364525 0.009369 0.279799 -0.800865 -0.002510 0.598840 
-0.362144 0.016319 0.281814 -0.809430 0.044676 0.585514 
-0.359259 0.023338 0.284230 -0.804012 0.104820 0.585301 
-0.354571 0.030586 0.288045 -0.796045 0.130488 0.591003 
-0.349116 0.037960 0.292465 -0.780634 0.149656 0.606807 
-0.342419 0.045510 0.297856 -0.766465 0.152084 0.624021 
-0.340226 0.052515 0.299725 -0.761560 0.142459 0.632243 
-0.339174 0.059381 0.300696 -0.760631 0.143452 0.633136 
-0.338888 0.066150 0.301075 -0.760812 0.142999 0.633021 
-0.337572 0.073062 0.302260 -0.758566 0.155259 0.632829 
-0.334953 0.080165 0.304463 -0.756147 0.208951 0.620147 
-0.329869 0.087620 0.308595 -0.748208 0.280402 0.601299 
-0.317530 0.096128 0.318408 -0.732201 0.351160 0.583582 
-0.304469 0.104787 0.328778 -0.722484 0.381029 0.576915 
-0.294363 0.113086 0.336846 -0.727308 0.376931 0.573539 
-0.288298 0.120823 0.341749 -0.719446 0.377501 0.583000 
-0.283354 0.128428 0.345777 -0.716739 0.377383 0.586402 
-0.276232 0.136383 0.351508 -0.701467 0.416810 0.578111 
-0.095619 -0.535104 0.467785 0.081181 -0.989275 0.121434 
-0.114567 -0.526886 0.453259 -0.069730 -0.955682 0.286027 
-0.126967 -0.519106 0.443807 -0.163019 -0.906493 0.389484 
-0.136291 -0.511546 0.436742 -0.212683 -0.872510 0.439878 
-0.144746 -0.504075 0.430355 -0.223959 -0.840157 0.493943 
-0.153171 -0.496633 0.423975 -0.219655 -0.826465 0.518371 
-0.162163 -0.489203 0.417165 -0.197030 -0.836346 0.511573 
-0.170768 -0.481832 0.410653 -0.181186 -0.811170 0.556036 
-0.327414 -0.468187 0.289354 0.052143 -0.807948 0.586943 
-0.342719 -0.460931 0.277637 -0.144269 -0.781595 0.606876 
-0.351043 -0.454012 0.271333 -0.220382 -0.750911 0.622547 
-0.358010 -0.447174 0.266075 -0.337544 -0.695937 0.633827 
-0.363444 -0.440419 0.262014 -0.405114 -0.637881 0.654975 
-0.367578 -0.433724 0.258957 -0.478721 -0.579317 0.659711 
-0.371171 -0.427065 0.256322 -0.525812 -0.530912 0.664571 
-0.373823 -0.420443 0.254411 -0.571991 -0.458845 0.679918 
-0.375710 -0.413848 0.253102 -0.608007 -0.381725 0.696142 
-0.377230 -0.407267 0.252069 -0.638890 -0.297185 0.709578 
-0.378086 -0.400714 0.251556 -0.665511 -0.218296 0.713752 
-0.378428 -0.394164 0.251433 -0.683891 -0.147306 0.714557 
-0.377417 -0.387643 0.252374 -0.677802 -0.101293 0.728233 
-0.374709 -0.381141 0.254625 -0.681007 -0.085893 0.727222 
-0.370152 -0.374644 0.258309 -0.671939 -0.065508 0.737703 
-0.365192 -0.368127 0.262303 -0.656655 -0.074551 0.750498 
-0.363036 -0.361571 0.264133 -0.633878 -0.108717 0.765753 
-0.362727 -0.354988 0.264521 -0.595755 -0.175439 0.783771 
-0.363527 -0.348408 0.264045 -0.550667 -0.247429 0.797210 
-0.367283 -0.341818 0.261279 -0.484680 -0.331934 0.809263 
-0.372822 -0.335245 0.257131 -0.441790 -0.373992 0.815445 
-0.379415 -0.328699 0.252162 -0.410087 -0.421272 0.808925 
-0.384647 -0.322173 0.248251 -0.391937 -0.446608 0.804317 
-0.389241 -0.315667 0.244836 -0.395295 -0.452839 0.799174 
-0.393115 -0.309169 0.241968 -0.419417 -0.437283 0.795534 
-0.396548 -0.302681 0.239450 -0.445783 -0.416023 0.792592 
-0.399647 -0.296201 0.237199 -0.465515 -0.390768 0.794102 
-0.402244 -0.289728 0.235330 -0.477102 -0.363136 0.800316 
-0.404110 -0.283253 0.234030 -0.499208 -0.329778 0.801274 
-0.405873 -0.276778 0.232806 -0.507722 -0.298870 0.808019 
-0.407370 -0.270311 0.231786 -0.516623 -0.263320 0.814717 
-0.408745 -0.263834 0.230871 -0.524771 -0.227681 0.820229 
-0.410366 -0.257375 0.229765 -0.530288 -0.193706 0.825393 
-0.411839 -0.250920 0.228769 -0.535636 -0.148417 0.831304 
-0.412804 -0.244449 0.228168 -0.545919 -0.108084 0.830837 
-0.414096 -0.237997 0.227305 -0.554851 -0.064755 0.829426 
-0.413718 -0.231487 0.227746 -0.570193 -0.020940 0.821244 
-0.412807 -0.224948 0.228605 -0.578855 0.039530 0.814472 
-0.409703 -0.218323 0.231163 -0.601893 0.107145 0.791357 
-0.404056 -0.211574 0.235705 -0.650444 0.185657 0.736514 
-0.397371 -0.204752 0.241049 -0.724929 0.260083 0.637837 
-0.389022 -0.197823 0.247695 -0.806425 0.336209 0.486461 
-0.382943 -0.190965 0.252564 -0.858257 0.356794 0.368908 
-0.375810 -0.184022 0.258261 -0.877789 0.375642 0.297288 
-0.367469 -0.176988 0.264901 -0.878773 0.397573 0.263997 
-0.359346 -0.169923 0.271369 -0.880416 0.386461 0.274799 
-0.351409 -0.162832 0.277691 -0.890096 0.328008 0.316446 
-0.344023 -0.155745 0.283586 -0.891253 0.244608 0.381882 
-0.337437 -0.148664 0.288861 -0.863072 0.156010 0.480382 
-0.334577 -0.141798 0.291232 -0.815542 0.031588 0.577836 
-0.332800 -0.134985 0.292772 -0.778831 -0.068639 0.623467 
-0.332087 -0.128240 0.293483 -0.692021 -0.213559 0.689564 
-0.334058 -0.121681 0.292100 -0.651362 -0.283121 0.703967 
-0.336743 -0.115183 0.290156 -0.565986 -0.381445 0.730861 
-0.340374 -0.108758 0.287487 -0.540165 -0.433070 0.721576 
-0.344694 -0.102410 0.284279 -0.512706 -0.480409 0.711575 
-0.348644 -0.096045 0.281361 -0.504282 -0.497921 0.705532 
-0.352138 -0.089659 0.278794 -0.515280 -0.496788 0.698346 
-0.355204 -0.083253 0.276553 -0.537213 -0.488363 0.687680 
-0.357982 -0.076828 0.274549 -0.566539 -0.469531 0.677181 
-0.360313 -0.070383 0.272883 -0.594419 -0.447547 0.668108 
-0.362127 -0.063897 0.271627 -0.620231 -0.419238 0.662987 
-0.363717 -0.057391 0.270540 -0.646015 -0.400208 0.649998 
-0.365110 -0.050877 0.269606 -0.666033 -0.376377 0.644003 
-0.366251 -0.044342 0.268867 -0.684208 -0.350575 0.639497 
-0.367186 -0.037792 0.268295 -0.701050 -0.323351 0.635588 
-0.367785 -0.031206 0.267982 -0.721486 -0.295187 0.626356 
-0.368333 -0.024623 0.267701 -0.743969 -0.272453 0.610146 
-0.368464 -0.017994 0.267748 -0.764619 -0.235874 0.599767 
-0.368277 -0.011329 0.268051 -0.783824 -0.198838 0.588288 
-0.367993 -0.004648 0.268426 -0.803995 -0.160977 0.572432 
-0.367341 0.002078 0.269079 -0.821760 -0.108629 0.559385 
-0.365897 0.008893 0.270353 -0.832509 -0.057516 0.551016 
-0.363693 0.015808 0.272229 -0.838894 0.007303 0.544246 
-0.360806 0.022813 0.274628 -0.837414 0.050306 0.544248 
-0.357484 0.029890 0.277366 -0.832999 0.095929 0.544894 
-0.353180 0.037099 0.280874 -0.821797 0.114907 0.558074 
-0.347086 0.044558 0.285775 -0.801051 0.133680 0.583479 
-0.344385 0.051610 0.288038 -0.793727 0.129985 0.594222 
-0.342589 0.058562 0.289590 -0.792317 0.125310 0.597101 
-0.341684 0.065394 0.290441 -0.799999 0.125931 0.586634 
-0.340111 0.072331 0.291826 -0.798134 0.137252 0.586638 
-0.337850 0.079363 0.293740 -0.801583 0.163980 0.574956 
-0.334581 0.086551 0.296437 -0.798148 0.225368 0.558721 
-0.327848 0.094246 0.301846 -0.781954 0.297586 0.547714 
-0.312814 0.103160 0.313725 -0.750482 0.369236 0.548125 
-0.298237 0.112074 0.325240 -0.735453 0.383512 0.558593 
-0.292473 0.119755 0.329889 -0.734032 0.373376 0.567261 
-0.287802 0.127296 0.333689 -0.731806 0.367836 0.573723 
-0.283995 0.134730 0.336813 -0.725135 0.386774 0.569724 
-0.274574 0.143053 0.344322 -0.698165 0.457327 0.550834 
-0.064729 -0.536627 0.482630 0.244901 -0.959197 -0.141302 
-0.104189 -0.527169 0.452324 0.004246 -0.980724 0.195357 
-0.121661 -0.519098 0.438986 -0.086144 -0.946488 0.311032 
-0.133142 -0.511425 0.430285 -0.167359 -0.902261 0.397387 
-0.142585 -0.503895 0.423144 -0.176199 -0.881127 0.438828 
-0.152049 -0.496412 0.415999 -0.195085 -0.851996 0.485844 
-0.161939 -0.488951 0.408510 -0.146414 -0.855435 0.496784 
-0.294424 -0.476045 0.306311 0.254453 -0.823647 0.506814 
-0.330531 -0.467811 0.278564 0.028990 -0.834555 0.550163 
-0.343105 -0.460685 0.268998 -0.140295 -0.811175 0.567725 
-0.351203 -0.453782 0.262891 -0.236915 -0.774711 0.586255 
-0.357945 -0.446959 0.257830 -0.345511 -0.715331 0.607392 
-0.363421 -0.440214 0.253751 -0.399662 -0.678884 0.615944 
-0.367600 -0.433523 0.250665 -0.480511 -0.605543 0.634372 
-0.370893 -0.426881 0.248266 -0.505683 -0.578561 0.639963 
-0.373792 -0.420260 0.246180 -0.568154 -0.493085 0.658838 
-0.375882 -0.413670 0.244713 -0.591781 -0.439261 0.675904 
-0.377578 -0.407094 0.243544 -0.626642 -0.350888 0.695843 
-0.378631 -0.400545 0.242878 -0.645837 -0.278437 0.710892 
-0.379081 -0.394002 0.242686 -0.657679 -0.194031 0.727880 
-0.378365 -0.387485 0.243387 -0.649680 -0.142883 0.746659 
-0.376893 -0.380971 0.244674 -0.649200 -0.108926 0.752778 
-0.373759 -0.374466 0.247240 -0.640998 -0.087312 0.762561 
-0.370177 -0.367954 0.250161 -0.620353 -0.092272 0.778876 
-0.365591 -0.361441 0.253855 -0.607910 -0.105187 0.787008 
-0.364591 -0.354874 0.254780 -0.569925 -0.164045 0.805155 
-0.365663 -0.348294 0.254096 -0.524712 -0.237843 0.817379 
-0.370456 -0.341719 0.250537 -0.474681 -0.301918 0.826755 
-0.376115 -0.335166 0.246312 -0.429229 -0.351159 0.832136 
-0.382168 -0.328633 0.241774 -0.401198 -0.390464 0.828601 
-0.387171 -0.322123 0.238056 -0.398912 -0.416515 0.816936 
-0.391443 -0.315619 0.234898 -0.405260 -0.412585 0.815804 
-0.395670 -0.309143 0.231770 -0.420957 -0.406047 0.811124 
-0.399245 -0.302671 0.229153 -0.435035 -0.390935 0.811120 
-0.402693 -0.296214 0.226635 -0.444020 -0.368544 0.816714 
-0.406050 -0.289765 0.224184 -0.450313 -0.349044 0.821819 
-0.408129 -0.283303 0.222714 -0.451859 -0.323136 0.831509 
-0.410185 -0.276856 0.221277 -0.463089 -0.293025 0.836471 
-0.412453 -0.270415 0.219669 -0.467422 -0.253377 0.846945 
-0.414689 -0.263987 0.218080 -0.465882 -0.226827 0.855281 
-0.416885 -0.257562 0.216528 -0.463262 -0.192233 0.865121 
-0.419522 -0.251159 0.214630 -0.463149 -0.140558 0.875065 
-0.421783 -0.244755 0.213027 -0.472513 -0.107484 0.874746 
-0.423717 -0.238351 0.211674 -0.491521 -0.049172 0.869476 
-0.424754 -0.231915 0.211019 -0.503480 -0.003216 0.864001 
-0.424897 -0.225459 0.211057 -0.510219 0.048758 0.858662 
-0.424019 -0.218954 0.211883 -0.543874 0.109681 0.831968 
-0.420988 -0.212349 0.214378 -0.568075 0.168712 0.805498 
-0.416080 -0.205655 0.218325 -0.575834 0.232620 0.783775 
-0.405828 -0.198682 0.226420 -0.616545 0.316627 0.720846 
-0.385691 -0.191186 0.242170 -0.796269 0.418819 0.436517 
-0.376525 -0.184152 0.249415 -0.878685 0.377978 0.291625 
-0.367287 -0.177078 0.256726 -0.879082 0.400466 0.258535 
-0.359658 -0.170051 0.262780 -0.883057 0.383684 0.270179 
-0.351317 -0.162949 0.269396 -0.890525 0.327691 0.315572 
-0.344483 -0.155898 0.274848 -0.895570 0.229901 0.380921 
-0.337937 -0.148827 0.280074 -0.877357 0.128742 0.462244 
-0.335270 -0.141980 0.282285 -0.841668 0.027667 0.539285 
-0.333634 -0.135192 0.283709 -0.784547 -0.073553 0.615693 
-0.333205 -0.128474 0.284193 -0.700470 -0.229116 0.675906 
-0.335302 -0.121937 0.282713 -0.667850 -0.321240 0.671401 
-0.338121 -0.115455 0.280684 -0.587197 -0.404628 0.701053 
-0.341489 -0.109022 0.278227 -0.556019 -0.452666 0.697092 
-0.345576 -0.102666 0.275200 -0.530087 -0.496378 0.687471 
-0.349578 -0.096312 0.272249 -0.529909 -0.514259 0.674340 
-0.353142 -0.089944 0.269639 -0.541317 -0.523951 0.657610 
-0.356123 -0.083541 0.267479 -0.561806 -0.511202 0.650421 
-0.358464 -0.077088 0.265815 -0.589247 -0.496798 0.637166 
-0.360662 -0.070634 0.264261 -0.618379 -0.474634 0.626363 
-0.362661 -0.064176 0.262861 -0.643781 -0.451287 0.617968 
-0.364150 -0.057676 0.261855 -0.668957 -0.426940 0.608456 
-0.365495 -0.051162 0.260959 -0.688630 -0.407086 0.600058 
-0.366766 -0.044649 0.260130 -0.708564 -0.381438 0.593668 
-0.367376 -0.038079 0.259808 -0.729883 -0.353968 0.584788 
-0.368022 -0.031504 0.259457 -0.749704 -0.327487 0.575063 
-0.368494 -0.024916 0.259242 -0.770470 -0.297589 0.563753 
-0.368642 -0.018295 0.259270 -0.793331 -0.268911 0.546179 
-0.368666 -0.011664 0.259403 -0.813350 -0.230360 0.534224 
-0.368250 -0.004977 0.259879 -0.829822 -0.189548 0.524850 
-0.367437 0.001753 0.260662 -0.843570 -0.145430 0.516953 
-0.366375 0.008519 0.261639 -0.852821 -0.092472 0.513949 
-0.364529 0.015383 0.263222 -0.859241 -0.037314 0.510208 
-0.362074 0.022329 0.265274 -0.859198 0.012602 0.511486 
-0.359499 0.029298 0.267422 -0.856176 0.052012 0.514061 
-0.355757 0.036432 0.270481 -0.842609 0.087757 0.531327 
-0.350668 0.043751 0.274589 -0.833125 0.106841 0.542667 
-0.347061 0.050899 0.277536 -0.823109 0.111274 0.556876 
-0.344606 0.057915 0.279598 -0.813853 0.118157 0.568931 
-0.343622 0.064753 0.280509 -0.813834 0.121330 0.568290 
-0.342149 0.071660 0.281812 -0.820578 0.125692 0.557541 
-0.339974 0.078672 0.283652 -0.825007 0.153789 0.543794 
-0.336673 0.085854 0.286370 -0.825030 0.197654 0.529395 
-0.331901 0.093258 0.290223 -0.823303 0.248666 0.510233 
-0.323839 0.101152 0.296639 -0.799271 0.319695 0.508883 
-0.306462 0.110441 0.310297 -0.755474 0.377934 0.535185 
-0.298511 0.118418 0.316625 -0.747375 0.370289 0.551648 
-0.294203 0.125884 0.320130 -0.740091 0.364145 0.565390 
-0.291135 0.133181 0.322667 -0.739424 0.356642 0.571016 
-0.284543 0.141041 0.327942 -0.721354 0.403980 0.562537 
-0.271659 0.149908 0.338116 -0.692470 0.484548 0.534507 
-0.081126 -0.528184 0.461107 0.194672 -0.979529 -0.051264 
-0.110145 -0.519431 0.438942 0.000211 -0.979530 0.201304 
-0.127344 -0.511440 0.425865 -0.142544 -0.925944 0.349729 
-0.139343 -0.503777 0.416781 -0.149420 -0.891377 0.427927 
-0.150775 -0.496198 0.408137 -0.130084 -0.900007 0.416012 
-0.162666 -0.488643 0.399147 -0.063858 -0.879285 0.471996 
-0.310953 -0.475064 0.285142 0.162849 -0.849972 0.501029 
-0.331475 -0.467534 0.269490 -0.005747 -0.855608 0.517595 
-0.343251 -0.460455 0.260575 -0.145238 -0.824536 0.546852 
-0.351555 -0.453549 0.254327 -0.233331 -0.794006 0.561348 
-0.357863 -0.446751 0.249614 -0.342380 -0.735792 0.584283 
-0.363375 -0.440008 0.245521 -0.392602 -0.701079 0.595277 
-0.367216 -0.433340 0.242713 -0.465987 -0.642708 0.608099 
-0.370554 -0.426701 0.240284 -0.499535 -0.592455 0.632031 
-0.373412 -0.420085 0.238232 -0.546219 -0.539036 0.641158 
-0.375793 -0.413499 0.236546 -0.573892 -0.477213 0.665519 
-0.377842 -0.406922 0.235116 -0.591484 -0.421884 0.687141 
-0.379221 -0.400371 0.234199 -0.608690 -0.331449 0.720859 
-0.380088 -0.393832 0.233679 -0.634449 -0.259930 0.727949 
-0.379797 -0.387318 0.234046 -0.625793 -0.196570 0.754814 
-0.379366 -0.380796 0.234530 -0.614322 -0.143764 0.775849 
-0.377300 -0.374298 0.236265 -0.601226 -0.114157 0.790883 
-0.375352 -0.367784 0.237917 -0.587535 -0.105153 0.802338 
-0.371835 -0.361271 0.240771 -0.572012 -0.109400 0.812916 
-0.370530 -0.354737 0.241926 -0.532845 -0.148118 0.833148 
-0.371406 -0.348177 0.241401 -0.496151 -0.200500 0.844769 
-0.376071 -0.341622 0.237951 -0.455598 -0.255312 0.852787 
-0.380555 -0.335087 0.234642 -0.422606 -0.304193 0.853740 
-0.385170 -0.328566 0.231231 -0.398764 -0.349363 0.847899 
-0.389872 -0.322068 0.227748 -0.398315 -0.371915 0.838466 
-0.394604 -0.315586 0.224243 -0.410996 -0.372105 0.832238 
-0.399137 -0.309122 0.220904 -0.416094 -0.362165 0.834088 
-0.403001 -0.302668 0.218066 -0.419772 -0.358255 0.833933 
-0.406771 -0.296230 0.215309 -0.417040 -0.350360 0.838645 
-0.410483 -0.289804 0.212587 -0.414983 -0.338684 0.844441 
-0.413164 -0.283374 0.210671 -0.416368 -0.320098 0.850985 
-0.415908 -0.276954 0.208697 -0.413466 -0.298642 0.860151 
-0.419482 -0.270572 0.206089 -0.413172 -0.266710 0.870721 
-0.423238 -0.264204 0.203331 -0.422237 -0.240191 0.874085 
-0.426170 -0.257826 0.201218 -0.438365 -0.210895 0.873705 
-0.428190 -0.251428 0.199803 -0.452377 -0.180117 0.873449 
-0.430526 -0.245052 0.198152 -0.477312 -0.131783 0.868796 
-0.432844 -0.238689 0.196502 -0.516634 -0.090578 0.851401 
-0.433216 -0.232262 0.196367 -0.544926 -0.047931 0.837112 
-0.433001 -0.225806 0.196675 -0.565656 0.016169 0.824483 
-0.432178 -0.219335 0.197451 -0.591810 0.091523 0.800865 
-0.429845 -0.212790 0.199402 -0.609424 0.161126 0.776300 
-0.426810 -0.206200 0.201888 -0.628479 0.220881 0.745806 
-0.420882 -0.199463 0.206608 -0.626120 0.292420 0.722816 
-0.411070 -0.192503 0.214326 -0.598202 0.384014 0.703341 
-0.381608 -0.184507 0.237222 -0.753867 0.517429 0.404909 
-0.369439 -0.177291 0.246762 -0.866971 0.424511 0.261060 
-0.360124 -0.170180 0.254104 -0.883604 0.383512 0.268628 
-0.352106 -0.163108 0.260442 -0.891638 0.329056 0.310972 
-0.345270 -0.156064 0.265878 -0.902593 0.215036 0.372939 
-0.338993 -0.149026 0.270868 -0.883781 0.098009 0.457521 
-0.336292 -0.142193 0.273110 -0.846244 0.009647 0.532709 
-0.334836 -0.135423 0.274384 -0.799210 -0.106154 0.591604 
-0.334824 -0.128745 0.274540 -0.735828 -0.243125 0.632018 
-0.336607 -0.122189 0.273313 -0.670307 -0.334296 0.662521 
-0.339067 -0.115692 0.271566 -0.609307 -0.422523 0.670983 
-0.342315 -0.109267 0.269211 -0.574227 -0.469227 0.670887 
-0.346478 -0.102923 0.266138 -0.553230 -0.513481 0.655952 
-0.350602 -0.096591 0.263099 -0.551584 -0.533218 0.641432 
-0.353899 -0.090206 0.260703 -0.560225 -0.540043 0.628094 
-0.356871 -0.083810 0.258557 -0.584368 -0.528906 0.615446 
-0.358954 -0.077349 0.257105 -0.609713 -0.512564 0.604590 
-0.360873 -0.070886 0.255762 -0.636807 -0.492706 0.593059 
-0.362473 -0.064393 0.254677 -0.662783 -0.472047 0.581283 
-0.363915 -0.057891 0.253712 -0.686481 -0.453506 0.568398 
-0.365226 -0.051388 0.252847 -0.709017 -0.433153 0.556481 
-0.366463 -0.044882 0.252037 -0.730078 -0.409435 0.547127 
-0.367167 -0.038316 0.251649 -0.750146 -0.380756 0.540655 
-0.367627 -0.031737 0.251441 -0.768817 -0.349100 0.535771 
-0.368185 -0.025163 0.251164 -0.792795 -0.316289 0.520996 
-0.368410 -0.018562 0.251132 -0.810389 -0.283261 0.512867 
-0.368348 -0.011927 0.251328 -0.825697 -0.254951 0.503213 
-0.368050 -0.005261 0.251712 -0.843146 -0.211619 0.494290 
-0.367351 0.001453 0.252405 -0.854801 -0.171542 0.489782 
-0.366316 0.008211 0.253355 -0.863753 -0.130651 0.486682 
-0.364843 0.015019 0.254638 -0.868039 -0.077769 0.490366 
-0.362748 0.021912 0.256408 -0.868670 -0.025933 0.494713 
-0.360444 0.028842 0.258346 -0.863939 0.015628 0.503354 
-0.357602 0.035851 0.260690 -0.854378 0.052050 0.517037 
-0.353746 0.043001 0.263822 -0.845533 0.077491 0.528270 
-0.348996 0.050283 0.267651 -0.833445 0.099655 0.543542 
-0.345775 0.057391 0.270291 -0.832363 0.106594 0.543882 
-0.344361 0.064271 0.271537 -0.831775 0.114975 0.543075 
-0.342977 0.071156 0.272756 -0.831279 0.116710 0.543465 
-0.341164 0.078109 0.274312 -0.841438 0.137754 0.522500 
-0.337950 0.085270 0.276958 -0.843076 0.179104 0.507093 
-0.333640 0.092591 0.280443 -0.842843 0.229353 0.486838 
-0.327687 0.100177 0.285201 -0.834570 0.280160 0.474345 
-0.317580 0.108388 0.293178 -0.802499 0.338384 0.491417 
-0.306400 0.116806 0.301985 -0.772106 0.360476 0.523363 
-0.300149 0.124539 0.306979 -0.761111 0.352389 0.544548 
-0.297057 0.131813 0.309522 -0.754129 0.349187 0.556200 
-0.292268 0.139371 0.313389 -0.747157 0.360448 0.558420 
-0.284563 0.147408 0.319508 -0.718871 0.442176 0.536381 
-0.267479 0.156964 0.332893 -0.685440 0.528237 0.501136 
-0.115971 -0.511743 0.425704 -0.060031 -0.967390 0.246077 
-0.133301 -0.503797 0.412570 -0.103579 -0.928776 0.355877 
-0.146839 -0.496118 0.402348 -0.109935 -0.894362 0.433625 
-0.162028 -0.488407 0.390846 -0.079071 -0.895900 0.437165 
-0.313689 -0.474696 0.274657 0.141739 -0.862299 0.486161 
-0.331792 -0.467283 0.260924 -0.017810 -0.869340 0.493894 
-0.343004 -0.460229 0.252465 -0.148544 -0.839429 0.522776 
-0.351188 -0.453337 0.246327 -0.235802 -0.809988 0.536953 
-0.357699 -0.446544 0.241485 -0.338906 -0.756625 0.559161 
-0.363125 -0.439811 0.237466 -0.377710 -0.721625 0.580168 
-0.366877 -0.433153 0.234730 -0.455753 -0.660839 0.596305 
-0.370257 -0.426516 0.232285 -0.483585 -0.620699 0.617152 
-0.373571 -0.419900 0.229890 -0.527718 -0.565986 0.633383 
-0.376141 -0.413309 0.228066 -0.544470 -0.522979 0.655780 
-0.378362 -0.406743 0.226500 -0.567448 -0.456099 0.685549 
-0.380124 -0.400193 0.225294 -0.573702 -0.407693 0.710388 
-0.382018 -0.393645 0.223988 -0.584096 -0.340109 0.736992 
-0.382726 -0.387126 0.223587 -0.590092 -0.257070 0.765314 
-0.383202 -0.380608 0.223369 -0.575898 -0.213894 0.789045 
-0.383877 -0.374088 0.222997 -0.565759 -0.172204 0.806389 
-0.383930 -0.367581 0.223101 -0.543598 -0.152590 0.825360 
-0.383134 -0.361072 0.223861 -0.509028 -0.145843 0.848304 
-0.382916 -0.354555 0.224172 -0.495215 -0.160019 0.853907 
-0.384007 -0.348039 0.223483 -0.466112 -0.186245 0.864900 
-0.385363 -0.341525 0.222589 -0.439911 -0.224113 0.869627 
-0.387680 -0.335009 0.220951 -0.412956 -0.262992 0.871953 
-0.390463 -0.328508 0.218963 -0.410646 -0.304129 0.859579 
-0.393825 -0.322023 0.216518 -0.406574 -0.327076 0.853064 
-0.398005 -0.315552 0.213455 -0.409396 -0.339047 0.847020 
-0.402917 -0.309104 0.209828 -0.407376 -0.334311 0.849871 
-0.407136 -0.302672 0.206731 -0.403326 -0.340744 0.849247 
-0.411479 -0.296255 0.203537 -0.399679 -0.342715 0.850178 
-0.415708 -0.289862 0.200434 -0.396271 -0.338255 0.853553 
-0.419750 -0.283473 0.197474 -0.395236 -0.330158 0.857196 
-0.423963 -0.277109 0.194378 -0.405676 -0.322325 0.855297 
-0.427985 -0.270755 0.191432 -0.419547 -0.318729 0.849936 
-0.431260 -0.264400 0.189059 -0.439019 -0.298686 0.847378 
-0.434030 -0.258044 0.187077 -0.474826 -0.270545 0.837464 
-0.436563 -0.251686 0.185273 -0.512635 -0.250381 0.821289 
-0.438752 -0.245338 0.183730 -0.555851 -0.196201 0.807796 
-0.440280 -0.238970 0.182699 -0.596974 -0.153970 0.787348 
-0.440756 -0.232565 0.182478 -0.640385 -0.097227 0.761875 
-0.440540 -0.226141 0.182788 -0.660374 -0.049654 0.749294 
-0.439883 -0.219693 0.183430 -0.688700 0.021774 0.724719 
-0.436297 -0.213122 0.186338 -0.696592 0.105440 0.709677 
-0.432853 -0.206537 0.189130 -0.694742 0.183001 0.695589 
-0.428763 -0.199902 0.192421 -0.695487 0.261163 0.669396 
-0.422521 -0.193148 0.197367 -0.680514 0.333056 0.652667 
-0.412745 -0.186182 0.205027 -0.636154 0.447997 0.628178 
-0.372622 -0.177562 0.236044 -0.827948 0.481506 0.287497 
-0.361824 -0.170389 0.244498 -0.884203 0.383237 0.267047 
-0.352761 -0.163266 0.251617 -0.896569 0.320690 0.305487 
-0.346329 -0.156255 0.256716 -0.909641 0.191640 0.368548 
-0.340337 -0.149243 0.261481 -0.885193 0.061518 0.461139 
-0.337527 -0.142410 0.263792 -0.862237 -0.034764 0.505310 
-0.335985 -0.135642 0.265129 -0.814386 -0.137946 0.563689 
-0.335768 -0.128968 0.265442 -0.752202 -0.260762 0.605140 
-0.337205 -0.122398 0.264489 -0.688444 -0.358126 0.630707 
-0.339706 -0.115917 0.262705 -0.625556 -0.444023 0.641501 
-0.343578 -0.109539 0.259873 -0.599959 -0.489579 0.632741 
-0.347499 -0.103185 0.257008 -0.578263 -0.532148 0.618410 
-0.351137 -0.096824 0.254359 -0.572970 -0.548219 0.609230 
-0.354088 -0.090426 0.252236 -0.582861 -0.556961 0.591667 
-0.356671 -0.084004 0.250392 -0.605948 -0.546522 0.578049 
-0.358806 -0.077553 0.248896 -0.630361 -0.530061 0.567169 
-0.360437 -0.071070 0.247792 -0.655460 -0.510808 0.556280 
-0.361919 -0.064571 0.246800 -0.680558 -0.487746 0.546758 
-0.363335 -0.058083 0.245850 -0.697170 -0.469729 0.541581 
-0.364756 -0.051587 0.244906 -0.719298 -0.447024 0.531770 
-0.365841 -0.045070 0.244222 -0.742921 -0.420931 0.520466 
-0.366603 -0.038524 0.243776 -0.765530 -0.394583 0.508203 
-0.367128 -0.031957 0.243529 -0.787964 -0.367446 0.494063 
-0.367489 -0.025371 0.243392 -0.807103 -0.339125 0.483300 
-0.367705 -0.018776 0.243377 -0.825141 -0.303990 0.476166 
-0.367771 -0.012156 0.243474 -0.839058 -0.272530 0.470861 
-0.367486 -0.005499 0.243840 -0.853468 -0.241563 0.461780 
-0.366846 0.001197 0.244485 -0.864023 -0.199436 0.462264 
-0.365995 0.007927 0.245292 -0.870139 -0.164567 0.464517 
-0.364430 0.014741 0.246643 -0.876229 -0.121049 0.466444 
-0.362561 0.021605 0.248232 -0.874250 -0.070056 0.480396 
-0.360424 0.028501 0.250029 -0.868764 -0.020864 0.494787 
-0.357603 0.035501 0.252350 -0.861181 0.016581 0.508029 
-0.354723 0.042519 0.254716 -0.851810 0.047020 0.521734 
-0.350614 0.049707 0.258038 -0.844663 0.076534 0.529799 
-0.346538 0.056916 0.261329 -0.841577 0.093543 0.531975 
-0.344142 0.063919 0.263329 -0.840996 0.110749 0.529585 
-0.342449 0.070838 0.264779 -0.841738 0.123165 0.525648 
-0.340807 0.077757 0.266198 -0.844007 0.141608 0.517299 
-0.338208 0.084826 0.268353 -0.851416 0.173199 0.495069 
-0.334716 0.092028 0.271193 -0.858816 0.203945 0.469938 
-0.329443 0.099502 0.275419 -0.848203 0.253315 0.465170 
-0.321899 0.107331 0.281387 -0.837571 0.293784 0.460614 
-0.312736 0.115431 0.288604 -0.804207 0.338452 0.488570 
-0.304204 0.123475 0.295337 -0.787897 0.341797 0.512244 
-0.301492 0.130679 0.297584 -0.780704 0.338955 0.524986 
-0.298033 0.138016 0.300405 -0.773911 0.331564 0.539562 
-0.292381 0.145710 0.304920 -0.758695 0.379555 0.529451 
-0.282471 0.154099 0.312722 -0.723224 0.476047 0.500326 
-0.250963 0.166009 0.337186 -0.659896 0.592340 0.462245 
-0.215808 0.178651 0.364475 -0.582332 0.597866 0.550859 
-0.121195 -0.504129 0.412981 -0.057631 -0.966169 0.251393 
-0.141367 -0.496106 0.397720 -0.069550 -0.922019 0.380848 
-0.272433 -0.483003 0.297696 0.292413 -0.841096 0.455031 
-0.314615 -0.474400 0.265594 0.108492 -0.879664 0.463057 
-0.331897 -0.467043 0.252535 -0.018189 -0.881251 0.472299 
-0.342908 -0.460004 0.244257 -0.154322 -0.850185 0.503360 
-0.350993 -0.453129 0.238228 -0.234394 -0.823170 0.517158 
-0.357330 -0.446347 0.233523 -0.331583 -0.772916 0.540976 
-0.362774 -0.439615 0.229508 -0.365463 -0.741856 0.562215 
-0.366718 -0.432961 0.226634 -0.435068 -0.685030 0.584337 
-0.370471 -0.426326 0.223915 -0.460071 -0.648123 0.606854 
-0.373875 -0.419714 0.221454 -0.501099 -0.593681 0.629638 
-0.376629 -0.413128 0.219495 -0.516111 -0.550317 0.656338 
-0.379537 -0.406553 0.217412 -0.524472 -0.514065 0.678724 
-0.382170 -0.399989 0.215547 -0.533758 -0.457394 0.711261 
-0.384865 -0.393439 0.213627 -0.535193 -0.401413 0.743260 
-0.387001 -0.386913 0.212140 -0.536508 -0.350183 0.767809 
-0.388733 -0.380392 0.210962 -0.537980 -0.306142 0.785401 
-0.391260 -0.373875 0.209164 -0.525975 -0.258927 0.810128 
