# .PCD v0.7 - Point Cloud Data file format
VERSION 0.7
FIELDS x y z rgb
SIZE 4 4 4 4
TYPE F F F U
COUNT 1 1 1 1
WIDTH 1145
HEIGHT 1
VIEWPOINT 0 0 0 1 0 0 0
POINTS 1145
DATA ascii
-18.354555 -52.612839 13.318152 4278190335
-17.970955 -52.547775 13.27352 4278190335
-17.622227 -52.57959 13.253993 4278190335
-17.262863 -52.57584 13.226097 4278190335
-4.2452135 -13.48538 3.3790519 4278190335
-3.8774536 -13.462132 3.3483672 4278190335
-13.669621 -52.248272 12.908091 4278190335
-12.965487 -52.162899 12.846722 4278190335
-3.5704138 -14.750578 3.6273205 4278190335
-3.1399724 -13.329447 3.2730501 4278190335
-3.3135483 -14.463362 3.5464239 4278190335
-3.3845401 -15.201137 3.7221646 4278190335
-2.8644903 -13.248093 3.2395756 4278190335
-3.1665893 -15.093032 3.6859007 4278190335
-2.8435104 -14.432236 3.5157392 4278190335
-9.5499125 -51.815292 12.592874 4278190335
-2.5937383 -14.574056 3.5380554 4278190335
-8.879775 -51.733032 12.545451 4278190335
-8.5640841 -51.798058 12.548242 4278190335
-8.2259312 -51.722839 12.517556 4278190335
-7.9084105 -51.772343 12.517556 4278190335
-7.6024337 -51.900726 12.537084 4278190335
-7.4766936 -53.321823 12.869038 4278190335
-7.304348 -54.523487 13.14799 4278190335
-1.6389707 -13.49005 3.2479444 4278190335
-1.3316294 -11.551977 2.7793028 4278190335
-1.666904 -15.284325 3.6747425 4278190335
-1.5695074 -15.259435 3.6663737 4278190335
-1.0929466 -12.081001 2.8992527 4278190335
-0.93734103 -12.000418 2.8769364 4278190335
-0.91644961 -12.739338 3.0526772 4278190335
-0.9769122 -14.852666 3.5575821 4278190335
-0.71698833 -12.027288 2.8797259 4278190335
-0.83569372 -15.632741 3.7416911 4278190335
-0.59250438 -12.524827 2.9968863 4278190335
-0.1632992 -9.8414164 2.3525047 4278190335
-0.21302485 -49.314545 11.786699 4278190335
0.089991458 -49.548347 11.84249 4278190335
0.26280847 -9.9676905 2.3831897 4278190335
1.5063131 -46.337696 11.080948 4278190335
0.47030303 -12.167939 2.9104109 4278190335
0.4525044 -10.10108 2.4166639 4278190335
0.6968568 -12.20383 2.9215691 4278190335
0.95524555 -11.682858 2.8016193 4278190335
1.0330471 -11.746534 2.8183563 4278190335
1.1699635 -10.982771 2.6398265 4278190335
1.5811186 -11.485139 2.7709343 4278190335
6.3155918 -40.362213 9.7642889 4278190335
2.4424391 -14.446317 3.5017917 4278190335
1.8334203 -10.453512 2.5366137 4278190335
1.9183946 -10.556898 2.5645089 4278190335
2.0111773 -10.69404 2.6007729 4278190335
2.0986011 -10.451141 2.5477719 4278190335
2.1674242 -10.460924 2.5533509 4278190335
2.5088108 -11.402422 2.7904611 4278190335
2.5581045 -11.29575 2.7681448 4278190335
8.9464588 -37.36972 9.1840668 4278190335
3.3452754 -13.604146 3.3483672 4278190335
3.6143551 -14.318926 3.5296869 4278190335
3.7059352 -13.957642 3.4515798 4278190335
3.8581383 -13.843657 3.4348428 4278190335
4.4253354 -13.881306 3.4822648 4278190335
11.24174 -34.529301 8.679162 4278190335
11.409222 -34.326763 8.6456871 4278190335
11.563396 -34.090321 8.6038437 4278190335
11.86014 -34.272408 8.6680031 4278190335
12.213932 -34.606209 8.7712164 4278190335
12.540647 -34.849087 8.8521128 4278190335
12.878836 -35.111164 8.9385881 4278190335
4.3374867 -11.390808 2.9132004 4278190335
4.2975726 -11.081059 2.8406725 4278190335
5.1416793 -12.566373 3.2451546 4278190335
15.478744 -34.748993 9.0920124 4278190335
15.648338 -34.557674 9.066906 4278190335
15.91864 -34.588238 9.1003809 4278190335
16.011902 -34.236176 9.033432 4278190335
16.126493 -33.936993 8.9804306 4278190335
16.334423 -33.837402 8.9804306 4278190335
16.907095 -33.437271 8.9553251 4278190335
17.094999 -32.802921 8.8409538 4278190335
17.690313 -32.47245 8.8381643 4278190335
17.99086 -32.547157 8.8883762 4278190335
17.961874 -32.028965 8.7767944 4278190335
18.266066 -31.654497 8.734952 4278190335
18.318466 -31.300074 8.6680031 4278190335
18.539959 -31.237268 8.6819515 4278190335
18.713223 -31.09292 8.6735821 4278190335
18.800299 -30.808147 8.6261606 4278190335
18.841606 -30.454006 8.5592117 4278190335
18.984701 -30.268608 8.5396843 4278190335
19.132498 -30.092457 8.5229473 4278190335
19.398972 -30.102034 8.5592117 4278190335
19.615221 -30.031294 8.5731592 4278190335
19.79912 -29.910372 8.5731592 4278190335
19.832731 -29.565393 8.5089998 4278190335
20.206594 -28.956051 8.4392614 4278190335
20.417576 -28.879171 8.4532099 4278190335
20.743013 -28.588655 8.4420509 4278190335
21.125183 -28.015621 8.38626 4278190335
21.30377 -27.894749 8.3890505 4278190335
21.431684 -27.708117 8.3723135 4278190335
21.558111 -27.520962 8.3555756 4278190335
21.530727 -27.141291 8.2802591 4278190335
21.653 -26.954075 8.2635212 4278190335
21.663313 -26.630575 8.2049408 4278190335
21.811468 -26.479134 8.1993628 4278190335
21.97353 -26.344803 8.1993628 4278190335
22.413395 -26.539402 8.3025751 4278190335
22.59857 -26.427988 8.3109436 4278190335
22.737387 -26.262358 8.3025751 4278190335
22.867327 -26.087242 8.2914171 4278190335
22.918505 -25.824226 8.2523632 4278190335
23.053125 -25.65707 8.2439947 4278190335
23.296511 -25.610106 8.2746792 4278190335
23.247644 -25.243464 8.2021513 4278190335
23.449854 -25.151564 8.2188892 4278190335
23.643793 -25.049641 8.2328358 4278190335
23.772861 -24.87878 8.2244673 4278190335
23.884495 -24.690502 8.2105207 4278190335
23.929382 -24.435081 8.1742563 4278190335
24.029562 -24.238064 8.1575193 4278190335
24.177832 -24.090164 8.1575193 4278190335
24.27528 -23.892235 8.1407814 4278190335
24.228954 -23.555716 8.076623 4278190335
24.347776 -23.382351 8.0682535 4278190335
24.499258 -23.240549 8.071044 4278190335
24.658432 -23.105749 8.076623 4278190335
25.34808 -22.89044 8.1630983 4278190335
26.218157 -21.979429 8.1770458 4278190335
26.235657 -21.721382 8.1407814 4278190335
26.43169 -21.611708 8.1603079 4278190335
26.509317 -21.405127 8.1435719 4278190335
26.612782 -21.220238 8.1352034 4278190335
26.669127 -20.998783 8.1128864 4278190335
26.917253 -20.927879 8.1491508 4278190335
27.100704 -20.804966 8.1658878 4278190335
27.274359 -20.67354 8.1798353 4278190335
27.297907 -20.428875 8.1491508 4278190335
27.563547 -20.365025 8.1909933 4278190335
27.669127 -20.181761 8.1854143 4278190335
27.669312 -19.922949 8.1491508 4278190335
28.000324 -19.901554 8.2105207 4278190335
28.074139 -19.695856 8.1965723 4278190335
28.088911 -19.450138 8.1658878 4278190335
28.188454 -19.26425 8.1603079 4278190335
28.52961 -18.988016 8.1909933 4278190335
28.49925 -18.716503 8.1491508 4278190335
28.486223 -18.458773 8.1128864 4278190335
28.608782 -18.289925 8.1156759 4278190335
28.83893 -18.188755 8.1491508 4278190335
29.108547 -18.110106 8.1937828 4278190335
29.229071 -17.937263 8.1965723 4278190335
29.388506 -17.787798 8.2105207 4278190335
29.647419 -17.696867 8.2523632 4278190335
29.785624 -17.532383 8.2607317 4278190335
29.94311 -17.378584 8.2746792 4278190335
29.9884 -17.15975 8.2579422 4278190335
30.909779 -16.206926 8.3416281 4278190335
31.085529 -15.81581 8.3360491 4278190335
31.286335 -15.677062 8.363945 4278190335
31.40287 -15.495126 8.369523 4278190335
31.539349 -15.322551 8.380682 4278190335
31.801237 -15.209311 8.4253149 4278190335
31.767244 -14.954245 8.39184 4278190335
31.900764 -14.778667 8.402998 4278190335
32.171383 -14.664946 8.4504194 4278190335
32.377903 -14.519803 8.4811049 4278190335
32.44503 -14.311442 8.4755259 4278190335
32.703545 -14.186408 8.5201578 4278190335
32.736301 -13.962583 8.5062103 4278190335
33.015099 -13.842686 8.5564222 4278190335
33.04546 -13.617614 8.5424738 4278190335
33.312302 -13.489064 8.5898972 4278190335
33.340218 -13.262839 8.5759487 4278190335
33.551422 -13.108987 8.6094236 4278190335
33.696602 -12.927956 8.6261606 4278190335
33.742527 -12.708613 8.6177921 4278190335
33.896503 -12.52966 8.6373186 4278190335
33.983719 -12.325418 8.6401081 4278190335
34.146671 -12.147962 8.6624241 4278190335
34.022209 -11.869013 8.6122122 4278190335
34.193787 -11.694024 8.6373186 4278190335
34.309162 -11.498831 8.6484766 4278190335
34.512138 -11.331789 8.6819515 4278190335
34.63657 -11.137676 8.6958981 4278190335
34.804455 -10.956483 8.7210045 4278190335
34.982567 -10.777081 8.7488995 4278190335
35.081558 -10.572333 8.757268 4278190335
35.201744 -10.373373 8.7712164 4278190335
35.399319 -10.195949 8.8046904 4278190335
35.697144 -10.04494 8.8632708 4278190335
35.881905 -9.8597345 8.8939552 4278190335
36.065727 -9.6726379 8.9246407 4278190335
36.248604 -9.4836559 8.9553251 4278190335
36.147781 -9.2206736 8.9162722 4278190335
36.339596 -9.032485 8.9497452 4278190335
36.485085 -8.8313055 8.9720621 4278190335
36.754433 -8.6581173 9.0250635 4278190335
36.79549 -8.4298267 9.0222731 4278190335
37.006016 -8.2394066 9.0613279 4278190335
37.101505 -8.0220528 9.0724859 4278190335
37.367054 -7.8397846 9.1254864 4278190335
37.517391 -7.6312947 9.1505919 4278190335
37.689472 -7.4257665 9.1812773 4278190335
37.963619 -7.2380853 9.2370672 4278190335
38.225399 -7.0452023 9.2900686 4278190335
38.566666 -6.8636932 9.3625965 4278190335
43.071239 -7.3930116 10.444935 4278190335
43.230938 -7.1476302 10.47283 4278190335
43.389244 -6.9005671 10.500725 4278190335
43.661522 -6.6694536 10.556516 4278190335
43.840199 -6.4217248 10.589991 4278190335
44.017471 -6.1720533 10.623465 4278190335
44.297443 -5.9343953 10.682045 4278190335
44.37933 -5.6683946 10.693203 4278190335
44.610237 -5.4199114 10.740625 4278190335
44.758598 -5.159451 10.76852 4278190335
45.067875 -4.9150896 10.835469 4278190335
45.306164 -4.6599603 10.885681 4278190335
45.496544 -4.3975992 10.924734 4278190335
45.673779 -4.1320257 10.960998 4278190335
47.100731 -3.097981 11.281794 4278190335
47.223709 -2.8151691 11.3069 4278190335
47.368294 -2.5322101 11.337584 4278190335
26.354872 16.305511 7.4071355 4278190335
25.997255 16.305676 7.3346076 4278190335
25.628422 16.515995 7.2871852 4278190335
25.174824 16.443172 7.1867623 4278190335
24.810686 16.423391 7.111445 4278190335
24.75791 16.607828 7.1253929 4278190335
24.308052 16.523224 7.0249696 4278190335
23.48531 16.175543 6.8157544 4278190335
22.801773 15.911915 6.6455932 4278190335
22.282185 15.959463 6.5507493 4278190335
21.301235 15.858122 6.3471131 4278190335
20.631973 15.757046 6.2048473 4278190335
20.396421 15.776234 6.1630044 4278190335
19.502048 15.666569 5.9788952 4278190335
19.260691 15.668095 5.9342628 4278190335
18.98402 15.63757 5.8784723 4278190335
17.652845 15.473977 5.6106772 4278190335
17.201178 15.455423 5.5269914 4278190335
16.967884 15.435019 5.4823589 4278190335
9.6772299 15.136955 4.2940183 4278190335
10.592811 16.795286 4.7459221 4278190335
10.367596 16.894171 4.7375541 4278190335
10.293957 17.007389 4.7515016 4278190335
7.3889623 15.449625 4.0931726 4278190335
7.2592292 15.420752 4.0736451 4278190335
7.1791911 15.496775 4.0820141 4278190335
7.0549235 15.476813 4.0652766 4278190335
6.964602 15.530459 4.0680661 4278190335
6.6480889 15.325661 3.992749 4278190335
6.1967735 14.528791 3.7751658 4278190335
6.0307899 14.383561 3.7277436 4278190335
0.49144486 14.035827 3.3567359 4278190335
-0.28661144 14.169913 3.3874207 4278190335
-1.4778051 13.872566 3.3344197 4278190335
-1.5668203 13.898031 3.3427882 4278190335
-3.4343989 13.605997 3.3539462 4278190335
-3.6100922 13.596668 3.3623149 4278190335
-3.6903875 13.563 3.3595254 4278190335
-3.782939 13.573829 3.3678942 4278190335
-3.8629529 13.539138 3.3651044 4278190335
-3.9557681 13.548792 3.3734732 4278190335
-4.0354877 13.513081 3.3706837 4278190335
-4.1115098 13.46574 3.3651044 4278190335
-4.2044868 13.473683 3.3734732 4278190335
-4.4598417 13.698521 3.4432113 4278190335
-4.5548539 13.704124 3.4515798 4278190335
-4.6463451 13.426607 3.3957894 4278190335
-5.1500535 13.279135 3.4041579 4278190335
-5.4864221 13.408932 3.462738 4278190335
-5.7552533 13.587776 3.5268974 4278190335
-6.1986241 13.468454 3.5436344 4278190335
-6.9706888 13.375781 3.6050041 4278190335
-7.194519 13.600995 3.677532 4278190335
-7.7487817 13.817348 3.7863235 4278190335
-7.8391891 13.779687 3.7891133 4278190335
-9.5310392 14.592212 4.1657 4278190335
-9.4979944 14.348544 4.112699 4278190335
-11.377605 13.141473 4.154542 4278190335
-11.481106 13.097743 4.1629105 4278190335
-11.971564 13.16047 4.2521758 4278190335
-13.103938 12.897168 4.3944416 4278190335
-13.586836 12.731304 4.450232 4278190335
-13.784613 12.758688 4.4892855 4278190335
-14.855633 12.767572 4.6817632 4278190335
-15.172186 12.719275 4.7319746 4278190335
-16.841166 13.943366 5.2257218 4278190335
-16.944473 13.854544 5.2313008 4278190335
-16.566053 13.376371 5.0890346 4278190335
-16.793825 13.390894 5.1336675 4278190335
-15.958683 12.565576 4.8547139 4278190335
-16.25662 12.63935 4.9216628 4278190335
-16.444962 12.624649 4.9551373 4278190335
-17.412205 12.375925 5.105772 4278190335
-18.023344 12.480247 5.2396693 4278190335
-18.186306 12.42869 5.2647753 4278190335
-18.542835 12.506123 5.3456717 4278190335
-18.745531 12.476176 5.3819356 4278190335
-19.046108 12.508279 5.446095 4278190335
-19.259624 12.480034 5.485148 4278190335
-19.286671 12.330192 5.4712005 4278190335
-20.176846 12.382105 5.6580992 4278190335
-20.342304 12.312459 5.6832051 4278190335
-20.527706 12.253212 5.7138901 4278190335
-20.592445 12.121104 5.7111001 4278190335
-20.767376 12.05311 5.7389956 4278190335
-21.276533 12.174708 5.8589454 4278190335
-21.45249 12.101273 5.8868408 4278190335
-21.567141 11.992102 5.8979988 4278190335
-21.691492 11.887588 5.9119463 4278190335
-21.866718 11.809731 5.9398417 4278190335
-22.186045 11.806931 6.0067906 4278190335
-22.433792 11.762712 6.0542126 4278190335
-22.733677 11.742678 6.115582 4278190335
-23.034151 11.7194 6.1769519 4278190335
-23.345623 11.698103 6.2411113 4278190335
-23.699554 11.694077 6.3164282 4278190335
-23.959826 11.640242 6.3666401 4278190335
-24.294025 11.618899 6.4363785 4278190335
-25.505312 12.006476 6.7376475 4278190335
-25.875025 11.987123 6.8157544 4278190335
-26.287926 11.983042 6.9050193 4278190335
-26.510052 11.888377 6.9440732 4278190335
-57.697407 22.952204 14.841235 4278190335
-57.717571 22.551025 14.810551 4278190335
-58.475975 22.43475 14.969555 4278190335
-79.369797 20.765375 19.608545 4278190335
-79.201675 20.202976 19.536016 4278190335
-79.160049 19.160885 19.466278 4278190335
-79.252693 18.15675 19.432804 4278190335
-78.88414 17.563589 19.315643 4278190335
-23.537798 5.0893211 5.7557325 4278190335
-23.511471 4.9328175 5.741785 4278190335
-23.426926 4.7651973 5.7138901 4278190335
-23.409918 4.6123381 5.7027316 4278190335
-23.380455 4.4576817 5.6887841 4278190335
-23.372932 4.3077912 5.6804152 4278190335
-23.822214 3.1913905 5.7445745 4278190335
-28.24069 3.6070704 6.8045964 4278190335
-28.285463 3.4365363 6.8101754 4278190335
-28.201666 3.2508864 6.7850699 4278190335
-28.134947 2.8938165 6.759964 4278190335
-28.16379 2.7222521 6.7627535 4278190335
-28.156715 2.5472879 6.7571745 4278190335
-28.125294 2.3705525 6.746016 4278190335
-28.116039 2.1961169 6.7404375 4278190335
-28.222115 2.0302582 6.7627535 4278190335
-29.480175 1.9390149 7.0612335 4278190335
-29.503168 1.7587861 7.064023 4278190335
-29.420166 1.5727407 7.0417066 4278190335
-23.366983 1.1054077 5.5911508 4278190335
-29.350819 1.0276779 7.0193901 4278190335
-29.326216 0.66662514 7.0110216 4278190335
-22.871021 -0.60806119 5.2198453 4278190335
-28.434771 -53.459316 13.814673 4278190335
-28.073633 -53.570606 13.798658 4278190335
-27.615597 -53.492355 13.734597 4278190335
-27.159582 -53.410511 13.670537 4278190335
-26.747528 -53.408779 13.627829 4278190335
-26.279602 -53.288589 13.555761 4278190335
-25.849932 -53.238346 13.502377 4278190335
-25.437008 -53.216515 13.457001 4278190335
-25.04027 -53.223381 13.419631 4278190335
-24.649324 -53.238007 13.384932 4278190335
-24.220343 -53.164673 13.328879 4278190335
-23.841042 -53.194847 13.299518 4278190335
-23.410372 -53.104614 13.240795 4278190335
-22.949135 -52.93597 13.163388 4278190335
-22.59178 -53.000446 13.144704 4278190335
-22.189285 -52.954636 13.099327 4278190335
-21.797117 -52.927521 13.059289 4278190335
-21.397343 -52.875904 13.013913 4278190335
-21.011992 -52.853996 12.976544 4278190335
-20.648993 -52.883846 12.952521 4278190335
-20.244535 -52.801991 12.901807 4278190335
-19.870714 -52.793823 12.869776 4278190335
-19.436947 -52.618443 12.797708 4278190335
-19.093788 -52.681717 12.784362 4278190335
-18.72707 -52.676624 12.755 4278190335
-18.353436 -52.646927 12.720301 4278190335
-18.007353 -52.692123 12.704286 4278190335
-17.62797 -52.635216 12.664248 4278190335
-17.239025 -52.542294 12.616201 4278190335
-16.87336 -52.513424 12.584172 4278190335
-16.189806 -52.593529 12.55481 4278190335
-15.789207 -52.434223 12.493419 4278190335
-15.391174 -52.271988 12.432027 4278190335
-3.7972648 -13.194656 3.1325302 4278190335
-14.704226 -52.299248 12.394658 4278190335
-3.5314825 -13.510253 3.185914 4278190335
-12.954877 -52.169312 12.263867 4278190335
-3.0788546 -13.452559 3.1485453 4278190335
-3.1258855 -14.915378 3.4768569 4278190335
-10.225829 -51.961555 12.082362 4278190335
-2.4703395 -13.898437 3.2206137 4278190335
-2.0874803 -13.144287 3.0364389 4278190335
-7.3506055 -54.960796 12.650902 4278190335
-1.7232517 -13.515481 3.1085072 4278190335
-1.6600085 -13.6884 3.1458759 4278190335
-6.7522397 -58.689823 13.478354 4278190335
-1.4767157 -13.568172 3.1138456 4278190335
-1.4763099 -15.308784 3.5088873 4278190335
-1.0149069 -12.073095 2.7641804 4278190335
-0.77490741 -11.821221 2.7027888 4278190335
-0.71068275 -11.965899 2.7348192 4278190335
-0.54395425 -10.217609 2.334439 4278190335
-0.63312221 -13.446209 3.0711386 4278190335
-2.054673 -50.190205 11.460438 4278190335
-1.7356889 -49.886173 11.38837 4278190335
-0.5026359 -49.106529 11.204194 4278190335
-0.20265731 -49.436268 11.278932 4278190335
0.026080318 -12.805914 2.921663 4278190335
1.5137653 -46.25309 10.558248 4278190335
1.7925417 -46.114334 10.528887 4278190335
0.56855375 -12.629359 2.8842945 4278190335
0.62271887 -12.169952 2.7801955 4278190335
0.70827329 -11.15727 2.5506444 4278190335
0.9727931 -11.865278 2.7161345 4278190335
4.3208098 -42.972542 9.8535786 4278190335
1.3376136 -11.841479 2.7188039 4278190335
1.3465586 -11.298659 2.5960207 4278190335
1.6434665 -11.401167 2.628051 4278190335
6.3365459 -40.437786 9.3384228 4278190335
1.8973826 -11.207442 2.5933514 4278190335
3.0127187 -14.986383 3.4875338 4278190335
2.4208958 -11.321569 2.6413972 4278190335
8.3941011 -38.110764 8.9033432 4278190335
8.736289 -37.469379 8.7778902 4278190335
8.9333153 -37.278542 8.7458601 4278190335
9.1395149 -37.132145 8.7245073 4278190335
9.2955351 -36.79179 8.6577759 4278190335
9.4066315 -36.292381 8.5536776 4278190335
9.6111116 -36.166142 8.5376625 4278190335
9.7682848 -35.869431 8.4816093 4278190335
9.9536152 -35.684856 8.4522476 4278190335
10.127413 -35.465618 8.4148788 4278190335
3.7164402 -12.718658 3.0230927 4278190335
10.481462 -35.069641 8.3508186 4278190335
10.662258 -34.89278 8.3241262 4278190335
4.0057201 -12.826777 3.0658002 4278190335
4.5359588 -14.217482 3.4047887 4278190335
11.197609 -34.368019 8.2467194 4278190335
4.7396274 -14.249558 3.4261422 4278190335
11.554585 -34.039688 8.2013435 4278190335
11.881913 -34.31086 8.2840881 4278190335
12.205208 -34.557224 8.361496 4278190335
12.563679 -34.888962 8.4602556 4278190335
12.91458 -35.184631 8.5510082 4278190335
4.5097885 -11.835452 2.8896327 4278190335
14.012933 -36.107986 8.8366127 4278190335
4.74928 -12.018594 2.9483552 4278190335
4.3208113 -10.741008 2.6413972 4278190335
4.8786774 -11.9161 2.9376783 4278190335
4.5692725 -10.967967 2.7107961 4278190335
4.6247897 -10.728428 2.6654198 4278190335
17.125198 -38.422424 9.5973358 4278190335
17.635845 -38.924046 9.7494793 4278190335
18.397964 -39.952164 10.035085 4278190335
16.18915 -34.049496 8.6017237 4278190335
16.321444 -33.791496 8.5616856 4278190335
16.782227 -33.172165 8.4816093 4278190335
16.990797 -33.078972 8.4842787 4278190335
17.096081 -32.787369 8.4362326 4278190335
17.335247 -32.754234 8.454917 4278190335
17.441784 -32.472038 8.4095411 4278190335
17.584707 -32.261677 8.3828487 4278190335
17.742697 -32.081509 8.3641644 4278190335
17.853338 -31.818991 8.3241262 4278190335
17.984579 -31.597002 8.2947645 4278190335
18.148869 -31.435398 8.2814198 4278190335
18.223177 -31.121527 8.228035 4278190335
18.306271 -30.828054 8.1799898 4278190335
18.483013 -30.695107 8.1746511 4278190335
18.772089 -30.326708 8.1372824 4278190335
19.174973 -29.740051 8.0732212 4278190335
19.325092 -29.572866 8.0598755 4278190335
19.454506 -29.3757 8.0385218 4278190335
19.634384 -29.255775 8.0385218 4278190335
19.774052 -29.076706 8.0225067 4278190335
19.885708 -28.858492 7.9958148 4278190335
20.042315 -28.707155 7.9878073 4278190335
20.191055 -28.545431 7.9771304 4278190335
20.311312 -28.344923 7.9557767 4278190335
20.477976 -28.210293 7.9531074 4278190335
20.602171 -28.018133 7.934423 4278190335
20.752735 -27.863047 7.9264154 4278190335
20.90217 -27.707167 7.9184079 4278190335
21.022064 -27.513317 7.8997235 4278190335
21.154686 -27.337547 7.8863773 4278190335
21.293161 -27.170395 7.8757005 4278190335
21.459475 -27.03923 7.8757005 4278190335
21.581007 -26.852335 7.8596859 4278190335
21.737978 -26.710337 7.8570161 4278190335
21.819616 -26.477137 7.8276548 4278190335
22.004152 -26.369703 7.8356624 4278190335
22.15799 -26.225254 7.832993 4278190335
22.242434 -25.999903 7.8063011 4278190335
22.386229 -25.845249 7.8009634 4278190335
22.505821 -25.663422 7.7876167 4278190335
22.6784 -25.542343 7.7929549 4278190335
22.779949 -25.341805 7.7742705 4278190335
22.958641 -25.227512 7.782279 4278190335
23.089216 -25.06035 7.7742705 4278190335
23.19467 -24.866875 7.758256 4278190335
23.322718 -24.698568 7.7502484 4278190335
23.473825 -24.554998 7.7502484 4278190335
23.640322 -24.427317 7.7555861 4278190335
23.75701 -24.248375 7.7449093 4278190335
23.913588 -24.110455 7.7475791 4278190335
24.027918 -23.930246 7.7369018 4278190335
24.182638 -23.790569 7.7395716 4278190335
24.261038 -23.576511 7.7182178 4278190335
24.413685 -23.435307 7.7208872 4278190335
24.548531 -23.277016 7.7182178 4278190335
24.699434 -23.133949 7.7208872 4278190335
24.823738 -22.966068 7.715548 4278190335
24.964188 -22.81332 7.715548 4278190335
25.103699 -22.659714 7.715548 4278190335
25.233532 -22.497469 7.7128797 4278190335
25.327198 -22.303556 7.6995335 4278190335
25.490055 -22.170765 7.707541 4278190335
25.598989 -21.991072 7.6995335 4278190335
25.778048 -21.871431 7.7128797 4278190335
25.893827 -21.697819 7.707541 4278190335
26.017462 -21.531071 7.7048712 4278190335
26.158144 -21.378429 7.707541 4278190335
26.407181 -21.313046 7.7422409 4278190335
26.528309 -21.143322 7.7395716 4278190335
26.703512 -21.016327 7.7529178 4278190335
26.9151 -20.916693 7.7769399 4278190335
27.042936 -20.75115 7.7769399 4278190335
27.179081 -20.591892 7.7796097 4278190335
27.361128 -20.466784 7.7956243 4278190335
27.467373 -20.284615 7.7902865 4278190335
27.648041 -20.157049 7.8063011 4278190335
27.676245 -19.918682 7.7796097 4278190335
33.243877 -23.617443 9.3037233 4278190335
28.091015 -19.698462 7.8276548 4278190335
28.182493 -19.505753 7.8196478 4278190335
28.253344 -19.299465 7.8063011 4278190335
28.497345 -19.210758 7.8410015 4278190335
28.497791 -18.957781 7.8089709 4278190335
28.466871 -18.686262 7.7689328 4278190335
28.620272 -18.53668 7.7796097 4278190335
28.723612 -18.354422 7.7769399 4278190335
28.87528 -18.202787 7.7876167 4278190335
29.125517 -18.111763 7.8249855 4278190335
29.266018 -17.951061 7.832993 4278190335
29.405645 -17.78932 7.8410015 4278190335
29.705139 -17.722445 7.8917155 4278190335
29.80324 -17.533913 7.8890467 4278190335
29.900145 -17.344841 7.8863773 4278190335
29.985699 -17.149435 7.8810396 4278190335
30.807514 -16.386379 7.9611149 4278190335
30.83494 -16.159025 7.9424305 4278190335
31.312487 -15.922598 8.0144987 4278190335
31.315447 -15.683018 7.9904761 4278190335
31.453058 -15.511272 8.001153 4278190335
31.642363 -15.36398 8.025176 4278190335
31.883814 -15.240173 8.0625448 4278190335
31.786173 -14.9546 8.0144987 4278190335
31.972883 -14.803521 8.0385218 4278190335
32.276047 -14.704067 8.0919056 4278190335
32.312279 -14.481824 8.0785599 4278190335
32.464764 -14.311604 8.0945749 4278190335
32.63784 -14.149363 8.1159286 4278190335
32.810143 -13.985533 8.1372824 4278190335
32.960083 -13.81108 8.1532974 4278190335
33.141563 -13.648676 8.1773205 4278190335
33.257225 -13.458234 8.1853285 4278190335
33.447895 -13.297137 8.2120199 4278190335
33.550648 -13.100164 8.2173586 4278190335
33.706867 -12.923373 8.236042 4278190335
33.76363 -12.708067 8.2307043 4278190335
34.049488 -12.577682 8.2814198 4278190335
34.159019 -12.380482 8.2894268 4278190335
34.102058 -12.123625 8.2573967 4278190335
34.054283 -11.871787 8.228035 4278190335
34.203983 -11.689094 8.2467194 4278190335
34.341625 -11.501295 8.2627354 4278190335
34.533829 -11.330482 8.2920961 4278190335
34.613838 -11.121951 8.2947645 4278190335
34.815353 -10.951483 8.3267956 4278190335
34.960167 -10.761747 8.34548 4278190335
35.103958 -10.570646 8.3641644 4278190335
35.269165 -10.384795 8.3881874 4278190335
35.422165 -10.194077 8.4095411 4278190335
35.878242 -10.087368 8.5029631 4278190335
40.068642 -11.000684 9.4798908 4278190335
40.214493 -10.775817 9.4985752 4278190335
36.216305 -9.4666805 8.5403318 4278190335
36.194351 -9.2240582 8.5216475 4278190335
36.352459 -9.0271769 8.5456705 4278190335
36.543625 -8.8369513 8.5777006 4278190335
36.699654 -8.6366777 8.6017237 4278190335
36.831787 -8.4296007 8.6204071 4278190335
36.997017 -8.2288475 8.6470995 4278190335
37.218349 -8.0387325 8.6871376 4278190335
37.370029 -7.8318119 8.7111607 4278190335
37.497639 -7.6186724 8.729845 4278190335
37.635513 -7.4065208 8.7511988 4278190335
37.933094 -7.2236028 8.8099213 4278190335
38.241341 -7.0394287 8.8713131 4278190335
38.698494 -6.8783574 8.9674044 4278190335
43.029568 -7.3760986 9.9603472 4278190335
43.224075 -7.1367111 9.9950466 4278190335
43.475033 -6.9043894 10.043092 4278190335
43.690063 -6.6639628 10.08313 4278190335
43.903774 -6.4211564 10.123168 4278190335
44.127731 -6.1775994 10.165875 4278190335
44.257576 -5.9191279 10.187229 4278190335
44.501961 -5.6740918 10.235274 4278190335
44.640465 -5.4136024 10.259297 4278190335
44.905296 -5.1663356 10.312681 4278190335
45.087349 -4.9071603 10.347381 4278190335
45.267906 -4.6459451 10.382081 4278190335
45.493534 -4.3871903 10.427457 4278190335
45.810894 -4.1342535 10.494186 4278190335
45.963642 -3.8638656 10.523548 4278190335
46.208103 -3.5990264 10.574263 4278190335
46.427696 -3.3296585 10.619639 4278190335
46.622368 -3.0562 10.659678 4278190335
46.932213 -2.7874138 10.726408 4278190335
47.111992 -2.5080981 10.763777 4278190335
47.313477 -2.2277813 10.806484 4278190335
47.44315 -1.9422147 10.833176 4278190335
48.90366 -0.80068254 11.158818 4278190335
1.0275046 0.13526443 0.23644675 4278190335
26.238161 16.241299 7.0402403 4278190335
26.029005 16.333582 7.0108795 4278190335
25.70125 16.348564 6.9494877 4278190335
25.551289 16.474257 6.9361415 4278190335
25.028595 16.35553 6.8213663 4278190335
24.293743 16.088902 6.6478682 4278190335
23.883705 16.029036 6.5624537 4278190335
23.649464 16.083174 6.5250845 4278190335
23.261324 16.028831 6.4450088 4278190335
22.970678 16.03731 6.3916245 4278190335
22.594851 15.982029 6.314218 4278190335
22.249104 15.943189 6.2448187 4278190335
21.923632 15.91446 6.1807575 4278190335
21.618208 15.896206 6.1220355 4278190335
21.313841 15.874807 6.063313 4278190335
20.99188 15.836187 5.9992518 4278190335
20.661907 15.787117 5.9325223 4278190335
20.351841 15.748919 5.8711305 4278190335
20.070654 15.729168 5.8177462 4278190335
19.827141 15.735656 5.7750392 4278190335
19.493114 15.666461 5.7056398 4278190335
19.196991 15.623306 5.6469173 4278190335
18.680443 15.587863 5.5508265 4278190335
17.912819 15.515442 5.4066896 4278190335
17.650154 15.478497 5.3559747 4278190335
17.441114 15.485525 5.3212748 4278190335
17.197857 15.459291 5.2758989 4278190335
16.964233 15.438531 5.2331915 4278190335
16.731518 15.415493 5.190484 4278190335
15.380271 15.254687 4.9422488 4278190335
15.101662 15.350537 4.9128876 4278190335
15.007188 15.442911 4.9128876 4278190335
14.855435 15.47562 4.8942027 4278190335
14.711901 15.515544 4.8781877 4278190335
14.321764 15.480217 4.8114576 4278190335
14.171264 15.507348 4.7927732 4278190335
13.030768 15.358289 4.595252 4278190335
12.18164 15.284179 4.4591231 4278190335
10.743517 15.122557 4.2322407 4278190335
11.135075 17.425751 4.7180352 4278190335
11.034183 17.503645 4.720705 4278190335
10.870971 17.481604 4.696682 4278190335
10.806321 17.617786 4.7153664 4278190335
10.661682 17.623699 4.6993513 4278190335
6.965651 14.572769 3.6850548 4278190335
7.0899987 16.354252 4.0667505 4278190335
6.9711671 16.354399 4.0560737 4278190335
6.8932939 16.450815 4.0694194 4278190335
6.7833142 16.471169 4.0640817 4278190335
6.6952872 16.545015 4.0720887 4278190335
6.5633888 16.509684 4.0534048 4278190335
6.4577079 16.538746 4.050735 4278190335
6.3896132 16.665449 4.0720887 4278190335
7.4535356 19.803045 4.8274727 4278190335
7.4170189 20.078873 4.8835263 4278190335
5.0812564 14.292863 3.4608419 4278190335
-5.532093 13.279098 3.2820053 4278190335
-6.5111666 13.271994 3.3727582 4278190335
-6.6446519 13.336509 3.3994503 4278190335
-6.7791724 13.39988 3.4261422 4278190335
-6.882647 13.39966 3.4368191 4278190335
-6.9809632 13.388297 3.4448266 4278190335
-7.0903444 13.396914 3.4581726 4278190335
-7.1890211 13.384076 3.4661803 4278190335
-7.276608 13.349985 3.4688494 4278190335
-7.4036822 13.38699 3.4902031 4278190335
-7.5314822 13.422934 3.5115566 4278190335
-7.7236614 13.569655 3.5622716 4278190335
-7.8594241 13.613196 3.5862944 4278190335
-7.9960098 13.655579 3.610317 4278190335
-8.15133 13.726972 3.6423473 4278190335
-8.2293692 13.666676 3.6396782 4278190335
-8.3862286 13.735748 3.6717086 4278190335
-8.4949827 13.723825 3.6823854 4278190335
-8.6163416 13.730901 3.6984007 4278190335
-8.7506657 13.756746 3.7197545 4278190335
-8.8412495 13.712626 3.7224236 4278190335
-9.5140152 14.559138 3.9679899 4278190335
-9.3131933 13.33954 3.7117467 4278190335
-10.880584 13.039256 3.874568 4278190335
-11.64829 13.119294 4.0026898 4278190335
-12.758352 12.863385 4.1334805 4278190335
-12.770725 12.718814 4.1121268 4278190335
-12.865206 12.656624 4.1174655 4278190335
-13.236281 12.862819 4.2108874 4278190335
-13.390918 12.854277 4.2349105 4278190335
-13.839949 12.804244 4.30164 4278190335
-14.047799 12.837467 4.3416781 4278190335
-14.931943 12.827438 4.4911537 4278190335
-15.267577 12.793517 4.5445375 4278190335
-15.974607 12.572412 4.6379595 4278190335
-16.162302 12.560305 4.6699901 4278190335
-16.322601 12.524999 4.6940126 4278190335
-16.632277 12.601238 4.7607431 4278190335
-17.688293 12.403687 4.9289021 4278190335
-17.898748 12.388136 4.9662714 4278190335
-18.119335 12.377065 5.0063095 4278190335
-18.398657 12.402986 5.0623627 4278190335
-18.64975 12.4065 5.1104078 4278190335
-19.016624 12.316624 5.1691303 4278190335
-19.318586 12.3446 5.2305222 4278190335
-19.601805 12.356849 5.2865753 4278190335
-20.36648 12.320962 5.4307122 4278190335
-20.771976 12.049663 5.4787579 4278190335
-21.312685 12.189162 5.601541 4278190335
-21.560328 12.155841 5.6469173 4278190335
-21.951521 12.199499 5.7296629 4278190335
-22.118311 12.115161 5.7536855 4278190335
-22.429024 12.107036 5.8150773 4278190335
-22.730129 12.090055 5.8737998 4278190335
-22.876423 11.988371 5.8924842 4278190335
-23.011927 11.87998 5.9084992 4278190335
-23.126102 11.759769 5.9191761 4278190335
-23.386118 11.711948 5.9672217 4278190335
-23.667397 11.671725 6.0206056 4278190335
-23.980627 11.643818 6.0819974 4278190335
-24.304955 11.617547 6.1460581 4278190335
-25.497927 11.996138 6.4289937 4278190335
-25.889551 11.986924 6.5090694 4278190335
-26.345892 12.002455 6.6051607 4278190335
-26.589861 11.91713 6.6478682 4278190335
-57.485367 22.853184 14.113624 4278190335
-57.450138 22.431946 14.070916 4278190335
-61.294113 22.215235 14.874346 4278190335
-64.938187 21.748337 15.624392 4278190335
-79.411034 20.237743 18.696642 4278190335
-79.175797 19.146231 18.584536 4278190335
-79.132355 18.622536 18.547167 4278190335
-79.142487 18.113148 18.523144 4278190335
-79.149361 17.604338 18.499123 4278190335
-23.598463 5.0969949 5.5081191 4278190335
-23.526237 4.9305038 5.4840961 4278190335
-23.441399 4.7627625 5.4574046 4278190335
-23.573475 3.3001354 5.4307122 4278190335
-23.604877 3.15698 5.4333816 4278190335
-23.565777 3.0046852 5.4200354 4278190335
-23.537312 2.8543978 5.4093585 4278190335
-23.554382 2.7099218 5.4093585 4278190335
-23.489153 2.556483 5.3906741 4278190335
-23.341461 2.3955858 5.3533053 4278190335
-23.157749 2.2332287 5.307929 4278190335
-22.845263 -2.1630332 5.0054474 4278190335
-22.553303 -5.4123573 5.0591526 4278190335
-22.496904 -5.5450287 5.054038 4278190335
-22.492996 -5.9853177 5.0770545 4278190335
-22.421913 -6.113966 5.0693822 4278190335
-24.256067 -23.780005 7.4093924 4278190335
-23.678862 -24.988592 7.50913 4278190335
-22.301558 -25.341532 7.3633595 4278190335
-22.391771 -25.761055 7.4451957 4278190335
-34.47216 -53.985615 13.97165 4278190335
-33.965282 -53.918346 13.900042 4278190335
-33.553364 -53.996281 13.866796 4278190335
-33.080498 -53.971233 13.807976 4278190335
-32.097504 -53.839386 13.672436 4278190335
-31.187445 -53.803196 13.565025 4278190335
-30.734562 -53.779778 13.511319 4278190335
-30.300411 -53.783482 13.465286 4278190335
-29.747843 -53.568645 13.365549 4278190335
-29.37356 -53.667889 13.34509 4278190335
-28.904562 -53.589134 13.281155 4278190335
-28.47616 -53.579128 13.235122 4278190335
-28.032654 -53.534729 13.181417 4278190335
-27.569269 -53.445232 13.117482 4278190335
-27.161154 -53.4566 13.079121 4278190335
-26.72246 -53.402073 13.025416 4278190335
-26.30619 -53.386246 12.981941 4278190335
-25.875772 -53.335682 12.930793 4278190335
-25.477285 -53.345333 12.894989 4278190335
-25.039753 -53.267227 12.838727 4278190335
-24.63368 -53.249607 12.797809 4278190335
-24.189911 -53.143658 12.736431 4278190335
-23.786707 -53.119873 12.695513 4278190335
-23.370529 -53.060963 12.646922 4278190335
-22.969954 -53.031223 12.606004 4278190335
-22.566034 -52.987793 12.562529 4278190335
-22.181625 -52.984665 12.529283 4278190335
-21.789183 -52.957134 12.490922 4278190335
-21.375942 -52.87244 12.439774 4278190335
-21.007845 -52.893642 12.414201 4278190335
-20.623249 -52.868633 12.378397 4278190335
-20.260721 -52.895638 12.35538 4278190335
-19.853251 -52.79948 12.304233 4278190335
-19.435547 -52.66732 12.245413 4278190335
-19.088072 -52.719437 12.230068 4278190335
-18.717148 -52.702988 12.19938 4278190335
-18.335579 -52.650761 12.161019 4278190335
-17.970509 -52.640224 12.132888 4278190335
-17.609978 -52.638309 12.107313 4278190335
-17.246498 -52.622818 12.079182 4278190335
-4.180511 -13.596352 3.102751 4278190335
-4.0767455 -13.554381 3.0874064 4278190335
-3.9471893 -13.421668 3.0516031 4278190335
-3.6870704 -13.446822 3.0413735 4278190335
-3.5135658 -13.129418 2.9646518 4278190335
-13.637734 -52.242744 11.777411 4278190335
-3.4042335 -13.376065 3.010685 4278190335
-3.2590964 -13.496611 3.0285866 4278190335
-3.1888721 -14.787379 3.2996697 4278190335
-2.4816351 -13.506016 2.9953406 4278190335
-8.8758125 -51.879642 11.480754 4278190335
-1.9354329 -13.263366 2.9237337 4278190335
-1.8767179 -13.437554 2.9595373 4278190335
-7.3308048 -54.948685 12.091969 4278190335
-1.7309052 -13.61077 2.9927831 4278190335
-6.7644458 -58.964718 12.946136 4278190335
-0.92769837 -11.960992 2.616847 4278190335
-0.60972184 -11.523547 2.5171092 4278190335
-0.54119372 -11.573917 2.5273385 4278190335
-0.34904349 -10.126734 2.2102225 4278190335
-0.28656849 -10.116965 2.207665 4278190335
-0.27467585 -12.380771 2.7012408 4278190335
-0.18657206 -49.432327 10.782586 4278190335
0.024317609 -10.296859 2.246026 4278190335
0.53371513 -13.616139 2.9723241 4278190335
0.61725217 -13.612609 2.9723241 4278190335
0.69956005 -13.585147 2.9672093 4278190335
0.56090391 -9.7296906 2.1258287 4278190335
3.5849466 -43.552189 9.5320234 4278190335
1.1242026 -11.873467 2.6015029 4278190335
6.5506449 -40.108017 8.8645458 4278190335
2.4584708 -13.033298 2.8930452 4278190335
3.3251207 -15.525588 3.4633427 4278190335
8.3276014 -37.75042 8.4323473 4278190335
9.0972137 -36.908581 8.2916908 4278190335
9.4522581 -36.41967 8.2072973 4278190335
9.6303244 -36.191036 8.1689358 4278190335
9.9822607 -35.742657 8.0947723 4278190335
10.178825 -35.601826 8.07687 4278190335
10.341119 -35.347404 8.0333948 4278190335
10.5242 -35.170963 8.0078211 4278190335
10.678069 -34.903923 7.9617877 4278190335
10.864046 -34.748222 7.9413285 4278190335
11.19875 -34.33363 7.8773942 4278190335
11.372168 -34.15303 7.8518205 4278190335
11.573968 -34.060406 7.846705 4278190335
11.890267 -34.298923 7.9183125 4278190335
12.245098 -34.634312 8.0129356 4278190335
12.576655 -34.889412 8.0896578 4278190335
13.62201 -35.714596 8.3377237 4278190335
4.5669384 -11.144348 2.6270766 4278190335
14.661504 -35.160904 8.3095922 4278190335
14.826606 -34.951553 8.2814617 4278190335
14.994339 -34.752274 8.255888 4278190335
16.001347 -33.626308 8.1229029 4278190335
18.80142 -30.352043 7.7878857 4278190335
19.535788 -29.477615 7.7137218 4278190335
19.961918 -28.948944 7.6702456 4278190335
20.092167 -28.758638 7.6523438 4278190335
20.234379 -28.586964 7.6395569 4278190335
20.521648 -28.251133 7.6165404 4278190335
20.652914 -28.068022 7.6011958 4278190335
20.80373 -27.912567 7.593524 4278190335
20.918095 -27.709534 7.5730643 4278190335
21.073481 -27.562035 7.5679502 4278190335
21.242203 -27.432211 7.5679502 4278190335
21.381184 -27.264452 7.5577207 4278190335
21.497032 -27.068478 7.5398188 4278190335
21.625977 -26.890383 7.5270314 4278190335
21.768356 -26.72991 7.5193596 4278190335
21.924498 -26.586792 7.5168018 4278190335
22.042131 -26.39777 7.5014582 4278190335
22.180983 -26.235165 7.4937859 4278190335
22.318668 -26.071852 7.486114 4278190335
22.455185 -25.907839 7.4784422 4278190335
22.605997 -25.760756 7.4758844 4278190335
22.724699 -25.577738 7.4630971 4278190335
22.857693 -25.411671 7.4554253 4278190335
23.013186 -25.270939 7.4554253 4278190335
23.136023 -25.094778 7.4451957 4278190335
23.265566 -24.926632 7.4375234 4278190335
23.40197 -24.766363 7.4324083 4278190335
23.529181 -24.596889 7.424736 4278190335
23.695974 -24.468901 7.4298515 4278190335
23.812836 -24.289555 7.4196219 4278190335
23.936647 -24.118021 7.4119496 4278190335
24.075872 -23.962423 7.4093924 4278190335
24.214088 -23.806025 7.4068346 4278190335
24.342884 -23.640667 7.40172 4278190335
24.462101 -23.466507 7.3940482 4278190335
24.580093 -23.291775 7.3863754 4278190335
24.731108 -23.148527 7.3889332 4278190335
24.864069 -22.988384 7.3863754 4278190335
25.004656 -22.835388 7.3863754 4278190335
25.153006 -22.689386 7.3889332 4278190335
25.274246 -22.519026 7.3838186 4278190335
25.385538 -22.340284 7.3761458 4278190335
25.50444 -22.168718 7.3710313 4278190335
25.648882 -22.019447 7.373589 4278190335
25.810335 -21.884399 7.3812609 4278190335
25.908175 -21.695509 7.3710313 4278190335
26.022739 -21.521189 7.3659167 4278190335
26.172461 -21.375942 7.3710313 4278190335
26.348759 -21.251753 7.3838186 4278190335
26.441977 -21.060461 7.373589 4278190335
26.607567 -20.926813 7.3838186 4278190335
26.73547 -20.763157 7.3838186 4278190335
26.862366 -20.598721 7.3838186 4278190335
26.997597 -20.440584 7.3863754 4278190335
27.103731 -20.260508 7.3812609 4278190335
27.284136 -20.135592 7.396605 4278190335
27.378744 -19.947088 7.3889332 4278190335
27.510141 -19.785566 7.3914905 4278190335
27.659706 -19.636755 7.3991628 4278190335
27.837282 -19.507038 7.4145064 4278190335
27.898596 -19.295851 7.3991628 4278190335
28.055202 -19.150743 7.4093924 4278190335
28.201351 -18.99789 7.4170642 4278190335
28.297863 -18.811514 7.4119496 4278190335
28.412756 -18.637526 7.4119496 4278190335
28.506891 -18.450096 7.4068346 4278190335
28.678854 -18.312695 7.4221792 4278190335
28.810516 -18.148876 7.4272938 4278190335
28.981083 -18.008884 7.4426379 4278190335
29.151016 -17.867483 7.4579825 4278190335
29.250065 -17.682215 7.4554253 4278190335
29.398293 -17.526421 7.4656549 4278190335
29.474958 -17.327881 7.4579825 4278190335
29.601011 -17.158459 7.4630971 4278190335
29.756634 -17.005596 7.4758844 4278190335
29.931921 -16.862976 7.4937859 4278190335
30.168076 -16.752995 7.5270314 4278190335
30.383432 -16.62949 7.5551629 4278190335
30.629366 -16.52067 7.5909672 4278190335
30.802629 -16.370937 7.6088686 4278190335
30.975204 -16.2197 7.6267705 4278190335
30.990786 -15.986334 7.6063108 4278190335
31.213722 -15.859608 7.6370001 4278190335
31.299963 -15.662539 7.6344423 4278190335
31.574263 -15.558288 7.6779175 4278190335
31.690229 -15.374495 7.683033 4278190335
31.805128 -15.189862 7.6881471 4278190335
31.781017 -14.939559 7.6600161 4278190335
31.91465 -14.763963 7.6702456 4278190335
32.271412 -14.689289 7.73418 4278190335
32.275333 -14.452668 7.7137218 4278190335
32.481434 -14.306342 7.7418528 4278190335
32.643913 -14.13939 7.7597547 4278190335
32.902641 -14.012325 7.8006721 4278190335
32.988003 -13.810174 7.8006721 4278190335
33.126331 -13.62981 7.8134594 4278190335
33.296295 -13.461451 7.8339186 4278190335
33.465439 -13.291516 7.8543777 4278190335
33.557285 -13.090186 7.8569345 4278190335
33.658871 -12.892425 7.8620501 4278190335
33.770267 -12.698033 7.8697219 4278190335
33.990532 -12.54335 7.9029675 4278190335
34.044811 -12.326571 7.8978534 4278190335
34.119804 -12.117443 7.8978534 4278190335
34.07172 -11.865445 7.8697219 4278190335
34.188267 -11.671313 7.8799515 4278190335
34.403778 -11.509674 7.913197 4278190335
34.507179 -11.309315 7.9208703 4278190335
34.676392 -11.129616 7.9438863 4278190335
34.788769 -10.930694 7.9541159 4278190335
35.000866 -10.761822 7.9873614 4278190335
35.088699 -10.553613 7.9924765 4278190335
35.299015 -10.381116 8.0257225 4278190335
35.474731 -10.196719 8.0512972 4278190335
39.93885 -11.215023 9.0486784 4278190335
40.006912 -10.969751 9.0486784 4278190335
40.232029 -10.7665 9.0844812 4278190335
36.236118 -9.4592762 8.1689358 4278190335
36.191219 -9.2107325 8.1459198 4278190335
36.383606 -9.022356 8.1766081 4278190335
36.597839 -8.8374701 8.2124119 4278190335
36.719856 -8.6288357 8.2277565 4278190335
36.863548 -8.4242601 8.2482157 4278190335
37.006111 -8.2182455 8.2686749 4278190335
37.20483 -8.0231552 8.3019209 4278190335
37.35664 -7.8163304 8.3249369 4278190335
37.495819 -7.6056118 8.345396 4278190335
37.691338 -7.4047809 8.3786421 4278190335
37.977943 -7.2193513 8.4323473 4278190335
38.252151 -7.0285635 8.4834957 4278190335
38.663967 -6.8592558 8.5653315 4278190335
43.062096 -7.3672662 9.5294666 4278190335
43.233742 -7.1238713 9.5575981 4278190335
43.508236 -6.8951626 9.6087456 4278190335
43.700405 -6.6510048 9.6419926 4278190335
43.868008 -6.401361 9.6701231 4278190335
44.022575 -6.1482882 9.6956968 4278190335
44.338383 -5.9152651 9.7570744 4278190335
44.455257 -5.6534524 9.7749758 4278190335
44.745182 -5.4115429 9.8312378 4278190335
44.894024 -5.1502523 9.8568125 4278190335
45.099621 -4.8936625 9.8951731 4278190335
45.315411 -4.6359353 9.9360914 4278190335
45.599754 -4.3824735 9.9923534 4278190335
45.800945 -4.1183462 10.030715 4278190335
46.012291 -3.8528929 10.071633 4278190335
46.198711 -3.5831869 10.107436 4278190335
46.442024 -3.3155122 10.156027 4278190335
46.613586 -3.0404069 10.189273 4278190335
46.865444 -2.7681603 10.24042 4278190335
47.115707 -2.4929371 10.291569 4278190335
47.340923 -2.2136509 10.337602 4278190335
47.61134 -1.9335973 10.393864 4278190335
47.833218 -1.648693 10.439897 4278190335
48.123703 -1.3631299 10.501274 4278190335
48.389034 -1.0735438 10.557536 4278190335
48.629169 -0.78037649 10.608685 4278190335
48.773727 -0.48337311 10.639374 4278190335
49.057156 -0.18515605 10.70075 4278190335
49.327026 0.11649332 10.75957 4278190335
50.903244 1.3698996 11.107375 4278190335
29.192125 14.556247 7.1152925 4278190335
29.049961 14.708612 7.1025062 4278190335
28.886171 14.84906 7.0846033 4278190335
28.742546 14.998903 7.0718169 4278190335
28.556725 15.125592 7.0488005 4278190335
28.349783 15.239465 7.020669 4278190335
28.193989 15.379442 7.0053248 4278190335
27.890684 15.661124 6.9771938 4278190335
26.925167 16.450918 6.8825703 4278190335
26.2556 16.263901 6.7367992 4278190335
25.946804 16.293758 6.683094 4278190335
25.421049 16.181938 6.5731263 4278190335
25.055283 16.165989 6.5040765 4278190335
24.778994 16.20392 6.4580436 4278190335
24.40546 16.174303 6.3864369 4278190335
24.013767 16.127647 6.3097153 4278190335
23.662348 16.103188 6.2432232 4278190335
23.273533 16.048403 6.1665015 4278190335
22.924736 16.016321 6.1000094 4278190335
22.54851 15.960251 6.0258455 4278190335
22.183372 15.907004 5.9542384 4278190335
21.876665 15.891228 5.8979759 4278190335
21.56155 15.865345 5.8391562 4278190335
21.247581 15.836198 5.7803359 4278190335
20.953508 15.81793 5.7266312 4278190335
20.604582 15.753927 5.6575813 4278190335
20.31286 15.729316 5.6038766 4278190335
20.0499 15.723426 5.5578432 4278190335
19.760242 15.693034 5.504138 4278190335
17.653376 15.491478 5.1230874 4278190335
17.426517 15.482698 5.0847263 4278190335
17.156855 15.43252 5.0335789 4278190335
16.949148 15.434878 5.0003328 4278190335
16.312778 15.414098 4.8954797 4278190335
16.184004 15.481483 4.8852501 4278190335
16.080284 15.572339 4.8826928 4278190335
15.393929 15.46681 4.7599382 4278190335
12.629524 15.27122 4.3226247 4278190335
10.578578 15.09603 4.020853 4278190335
11.138421 17.443481 4.5144291 4278190335
11.274894 17.898382 4.6141672 4278190335
11.338126 18.246059 4.6857738 4278190335
11.21983 18.305288 4.6832166 4278190335
11.076972 18.32362 4.6704297 4278190335
8.7181597 14.829706 3.7523272 4278190335
8.6093636 14.852491 3.7446554 4278190335
7.7471457 16.221275 3.9211149 4278190335
7.7172971 16.417053 3.9569185 4278190335
7.695179 16.634352 3.9978366 4278190335
7.6609678 16.830647 4.0336399 4278190335
7.6677599 17.123447 4.0924602 4278190335
7.6617913 17.395498 4.1461654 4278190335
7.5901532 17.822603 4.2254443 4278190335
7.562149 18.063507 4.2714772 4278190335
7.5464535 18.665817 4.391674 4278190335
7.4837132 18.842525 4.4223633 4278190335
7.4787374 19.172081 4.4888554 4278190335
7.4364448 19.414684 4.5348883 4278190335
5.1699152 14.278812 3.3124568 4278190335
-6.4656439 13.168376 3.1999316 4278190335
-8.8196278 13.132262 3.4505556 4278190335
-8.9660034 13.174827 3.4761295 4278190335
-9.1198864 13.225737 3.5042608 4278190335
-9.2142954 13.188751 3.5093756 4278190335
-9.3356886 13.189384 3.52472 4278190335
-9.4232731 13.141379 3.5272772 4278190335
-9.5726347 13.178171 3.5528512 4278190335
-9.67416 13.147516 3.5605233 4278190335
-10.581557 12.99336 3.6551466 4278190335
-10.950618 13.114515 3.7267537 4278190335
-11.389811 13.141079 3.7932458 4278190335
-12.217772 13.090072 3.9057708 4278190335
-13.389508 12.532694 4.0003943 4278190335
-13.801893 12.760713 4.100132 4278190335
-14.192503 12.802414 4.1691818 4278190335
-14.788549 12.854357 4.2740345 4278190335
-15.097201 12.80081 4.3175101 4278190335
-15.193439 12.722989 4.3226247 4278190335
-16.861361 13.944593 4.7727251 4278190335
-16.86488 13.774124 4.7497087 4278190335
-17.755659 12.442319 4.72925 4278190335
-17.93774 12.4065 4.757381 4278190335
-18.168461 12.401962 4.7982993 4278190335
-18.448414 12.427807 4.8520041 4278190335
-18.807472 12.502605 4.9261684 4278190335
-19.050489 12.496289 4.9696441 4278190335
-19.313818 12.500199 5.0182343 4278190335
-19.455841 12.255999 5.015677 4278190335
-19.994621 12.25527 5.1154151 4278190335
-20.219944 12.223336 5.1537757 4278190335
-20.425482 12.177088 5.1870217 4278190335
-20.590778 12.105006 5.2100382 4278190335
-20.816816 12.066631 5.2483993 4278190335
-21.440147 12.252812 5.3864985 4278190335
-21.596643 12.167066 5.4069571 4278190335
-21.783642 12.096934 5.4350886 4278190335
-22.207136 12.154431 5.5220399 4278190335
-22.467037 12.118126 5.5680728 4278190335
-22.727322 12.079085 5.6141057 4278190335
-22.987968 12.037304 5.6601391 4278190335
-23.196852 11.965899 5.6933851 4278190335
-23.656578 12.019843 5.7880082 4278190335
-23.813765 11.916436 5.8084674 4278190335
-24.023153 11.837461 5.8417134 4278190335
-23.989849 11.638659 5.8161392 4278190335
-24.304144 11.607455 5.8749595 4278190335
-25.467787 11.971848 6.1383705 4278190335
-25.923836 11.992566 6.2304363 4278190335
